0.111936 -2.983185 -5.559278
0.098837 -2.983185 -5.559278
0.085738 -2.983185 -5.559278
0.072639 -2.983185 -5.559278
0.059540 -2.983185 -5.559278
0.046441 -2.983185 -5.559278
0.033605 -3.006767 -5.603225
-19.586290 -190.178024 -354.403992
-20.421360 -190.178024 -354.403992
-21.256430 -190.178024 -354.403992
-22.091499 -190.178024 -354.403992
-22.926569 -190.178024 -354.403992
-23.761639 -190.178024 -354.403992
-24.596708 -190.178024 -354.403992
-25.431778 -190.178024 -354.403992
-26.266848 -190.178024 -354.403992
-1.307332 -3.055069 -5.693237
-1.310223 -3.030725 -5.647872
-1.328825 -3.042849 -5.670464
-1.342186 -3.042849 -5.670464
-1.350147 -3.030725 -5.647872
-1.363455 -3.030725 -5.647872
-1.416260 -3.117673 -5.809902
-1.429950 -3.117673 -5.809902
-1.437747 -3.104947 -5.786188
-1.451381 -3.104947 -5.786188
-1.477072 -3.130502 -5.833811
-1.496979 -3.143439 -5.857917
-1.504564 -3.130502 -5.833811
-1.524584 -3.143439 -5.857917
-1.538387 -3.143439 -5.857917
-1.552190 -3.143439 -5.857917
-1.565993 -3.143439 -5.857917
-1.579795 -3.143439 -5.857917
-1.593598 -3.143439 -5.857917
-1.607401 -3.143439 -5.857917
-1.614532 -3.130502 -5.833811
-1.635007 -3.143439 -5.857917
-2.259007 -2.983185 -5.559278
-2.272106 -2.983185 -5.559278
-2.285205 -2.983185 -5.559278
-2.298304 -2.983185 -5.559278
-2.311403 -2.983185 -5.559278
-2.324502 -2.983185 -5.559278
-2.337601 -2.983185 -5.559278
-2.350700 -2.983185 -5.559278
-2.363800 -2.983185 -5.559278
-2.376899 -2.983185 -5.559278
-2.408891 -3.006767 -5.603225
-2.431705 -3.018699 -5.625460
-2.877259 -3.143439 -5.857917
-2.891062 -3.143439 -5.857917
-2.892910 -3.130502 -5.833811
-2.906657 -3.130502 -5.833811
-3.135277 -3.209756 -5.981502
-3.149371 -3.209756 -5.981502
-3.150173 -3.196270 -5.956370
-3.177559 -3.209756 -5.981502
-3.191653 -3.209756 -5.981502
-3.205747 -3.209756 -5.981502
-3.206312 -3.196270 -5.956370
-3.247638 -3.223356 -6.006847
-3.261792 -3.223356 -6.006847
-3.275945 -3.223356 -6.006847
-3.304100 -3.237073 -6.032408
-3.318499 -3.209756 -5.981502
-3.318590 -3.196270 -5.956370
-3.332625 -3.196270 -5.956370
-3.360781 -3.209756 -5.981502
-45.169701 -38.035606 -70.880798
-45.336712 -38.035606 -70.880798
-45.503727 -38.035606 -70.880798
-45.670742 -38.035606 -70.880798
-45.837753 -38.035606 -70.880798
-46.004768 -38.035606 -70.880798
-46.171783 -38.035606 -70.880798
-48.777679 -40.037479 -74.611366
-48.953484 -40.037479 -74.611366
-49.129288 -40.037479 -74.611366
-49.305092 -40.037479 -74.611366
-49.480896 -40.037479 -74.611366
-49.656700 -40.037479 -74.611366
-59.176102 -47.544506 -88.600998
-59.384869 -47.544506 -88.600998
-59.593636 -47.544506 -88.600998
-63.789230 -50.714142 -94.507729
-64.011917 -50.714142 -94.507729
-74.116844 -58.516315 -109.047386
-74.373787 -58.516315 -109.047386
-74.630737 -58.516315 -109.047386
-88.503624 -69.155647 -128.874176
-88.807281 -69.155647 -128.874176
-89.110947 -69.155647 -128.874176
-89.414604 -69.155647 -128.874176
-89.718269 -69.155647 -128.874176
-90.021927 -69.155647 -128.874176
-90.325592 -69.155647 -128.874176
-83.076813 -63.392677 -118.134666
-83.355171 -63.392677 -118.134666
-91.236572 -69.155647 -128.874176
-100.694260 -76.071213 -141.761597
-252.570724 -190.178024 -354.403992
-253.405792 -190.178024 -354.403992
-254.240860 -190.178024 -354.403992
-255.075928 -190.178024 -354.403992
-255.910995 -190.178024 -354.403992
-256.746063 -190.178024 -354.403992
-257.581146 -190.178024 -354.403992
-258.416199 -190.178024 -354.403992
-259.251282 -190.178024 -354.403992
-260.086365 -190.178024 -354.403992
-260.921417 -190.178024 -354.403992
-261.756500 -190.178024 -354.403992
3.390036 -3.210304 -5.956370
3.376002 -3.210304 -5.956370
3.361967 -3.210304 -5.956370
3.347932 -3.210304 -5.956370
3.333897 -3.210304 -5.956370
3.333870 -3.223850 -5.981502
3.305828 -3.210304 -5.956370
3.291793 -3.210304 -5.956370
3.277758 -3.210304 -5.956370
3.250068 -3.196872 -5.931448
3.236092 -3.196872 -5.931448
3.208690 -3.183552 -5.906733
3.194772 -3.183552 -5.906733
3.167656 -3.170342 -5.882224
3.153796 -3.170342 -5.882224
3.126961 -3.157241 -5.857917
3.113158 -3.157241 -5.857917
3.086601 -3.144248 -5.833811
3.072855 -3.144248 -5.833811
3.059108 -3.144248 -5.833811
3.045362 -3.144248 -5.833811
3.019192 -3.131362 -5.809902
3.005502 -3.131362 -5.809902
2.991812 -3.131362 -5.809902
2.978123 -3.131362 -5.809902
2.964433 -3.131362 -5.809902
2.950744 -3.131362 -5.809902
2.937054 -3.131362 -5.809902
2.923364 -3.131362 -5.809902
2.909675 -3.131362 -5.809902
2.895985 -3.131362 -5.809902
2.882295 -3.131362 -5.809902
2.856897 -3.118581 -5.786188
2.843263 -3.118581 -5.786188
2.818127 -3.105904 -5.762667
2.793194 -3.093330 -5.739336
2.779671 -3.093330 -5.739336
2.766147 -3.093330 -5.739336
2.752624 -3.093330 -5.739336
2.739100 -3.093330 -5.739336
2.725577 -3.093330 -5.739336
2.701118 -3.080857 -5.716194
2.687649 -3.080857 -5.716194
2.674180 -3.080857 -5.716194
2.660711 -3.080857 -5.716194
2.647243 -3.080857 -5.716194
2.633774 -3.080857 -5.716194
2.620305 -3.080857 -5.716194
2.596367 -3.068484 -5.693237
2.582952 -3.068484 -5.693237
2.569537 -3.068484 -5.693237
2.556122 -3.068484 -5.693237
2.542708 -3.068484 -5.693237
2.529293 -3.068484 -5.693237
2.515878 -3.068484 -5.693237
2.502463 -3.068484 -5.693237
2.479092 -3.056210 -5.670464
2.455908 -3.044034 -5.647872
2.442600 -3.044034 -5.647872
2.429292 -3.044034 -5.647872
2.415984 -3.044034 -5.647872
2.393142 -3.031954 -5.625460
2.379887 -3.031954 -5.625460
2.366632 -3.031954 -5.625460
2.353376 -3.031954 -5.625460
2.340121 -3.031954 -5.625460
2.326866 -3.031954 -5.625460
2.322829 -3.044034 -5.647872
2.309521 -3.044034 -5.647872
2.296213 -3.044034 -5.647872
2.282905 -3.044034 -5.647872
2.269597 -3.044034 -5.647872
2.256289 -3.044034 -5.647872
2.242981 -3.044034 -5.647872
2.229674 -3.044034 -5.647872
2.216366 -3.044034 -5.647872
2.203058 -3.044034 -5.647872
2.189750 -3.044034 -5.647872
2.176442 -3.044034 -5.647872
2.163134 -3.044034 -5.647872
2.149826 -3.044034 -5.647872
2.136518 -3.044034 -5.647872
2.123210 -3.044034 -5.647872
2.109903 -3.044034 -5.647872
2.088275 -3.031954 -5.625460
2.075020 -3.031954 -5.625460
2.061765 -3.031954 -5.625460
2.048510 -3.031954 -5.625460
2.027210 -3.019970 -5.603225
1.998211 -2.996284 -5.559278
1.985112 -2.996284 -5.559278
1.972013 -2.996284 -5.559278
1.958914 -2.996284 -5.559278
1.945815 -2.996284 -5.559278
1.947994 -3.019970 -5.603225
1.934791 -3.019970 -5.603225
1.929214 -3.031954 -5.625460
1.915959 -3.031954 -5.625460
1.902704 -3.031954 -5.625460
1.889449 -3.031954 -5.625460
1.876194 -3.031954 -5.625460
1.862939 -3.031954 -5.625460
1.849684 -3.031954 -5.625460
1.836429 -3.031954 -5.625460
1.823173 -3.031954 -5.625460
1.788625 -2.996284 -5.559278
1.775526 -2.996284 -5.559278
1.762427 -2.996284 -5.559278
1.749328 -2.996284 -5.559278
1.736229 -2.996284 -5.559278
1.723130 -2.996284 -5.559278
1.710030 -2.996284 -5.559278
1.696931 -2.996284 -5.559278
1.683832 -2.996284 -5.559278
1.670733 -2.996284 -5.559278
1.657634 -2.996284 -5.559278
1.644535 -2.996284 -5.559278
1.631436 -2.996284 -5.559278
1.618336 -2.996284 -5.559278
1.605237 -2.996284 -5.559278
1.592138 -2.996284 -5.559278
1.579039 -2.996284 -5.559278
1.565940 -2.996284 -5.559278
1.552841 -2.996284 -5.559278
1.539742 -2.996284 -5.559278
1.526643 -2.996284 -5.559278
1.513543 -2.996284 -5.559278
1.500444 -2.996284 -5.559278
1.487345 -2.996284 -5.559278
1.474246 -2.996284 -5.559278
1.461147 -2.996284 -5.559278
1.448048 -2.996284 -5.559278
1.434949 -2.996284 -5.559278
1.421849 -2.996284 -5.559278
1.408750 -2.996284 -5.559278
1.395651 -2.996284 -5.559278
1.382552 -2.996284 -5.559278
1.369453 -2.996284 -5.559278
1.356354 -2.996284 -5.559278
1.343255 -2.996284 -5.559278
1.330156 -2.996284 -5.559278
1.317056 -2.996284 -5.559278
1.303957 -2.996284 -5.559278
1.290858 -2.996284 -5.559278
1.277759 -2.996284 -5.559278
1.264660 -2.996284 -5.559278
1.251561 -2.996284 -5.559278
1.238462 -2.996284 -5.559278
1.225363 -2.996284 -5.559278
1.212263 -2.996284 -5.559278
1.199164 -2.996284 -5.559278
1.186065 -2.996284 -5.559278
1.172966 -2.996284 -5.559278
1.159867 -2.996284 -5.559278
1.146768 -2.996284 -5.559278
1.133669 -2.996284 -5.559278
1.120569 -2.996284 -5.559278
1.107470 -2.996284 -5.559278
1.094371 -2.996284 -5.559278
1.081272 -2.996284 -5.559278
1.068173 -2.996284 -5.559278
1.055074 -2.996284 -5.559278
1.041975 -2.996284 -5.559278
1.028876 -2.996284 -5.559278
1.015776 -2.996284 -5.559278
1.002677 -2.996284 -5.559278
0.989578 -2.996284 -5.559278
0.976479 -2.996284 -5.559278
0.963380 -2.996284 -5.559278
0.950281 -2.996284 -5.559278
0.937182 -2.996284 -5.559278
0.924082 -2.996284 -5.559278
0.910983 -2.996284 -5.559278
0.897884 -2.996284 -5.559278
0.884785 -2.996284 -5.559278
0.871686 -2.996284 -5.559278
0.858587 -2.996284 -5.559278
0.845488 -2.996284 -5.559278
0.832389 -2.996284 -5.559278
0.819289 -2.996284 -5.559278
0.806190 -2.996284 -5.559278
50.559563 -191.013107 -354.403992
49.724491 -191.013107 -354.403992
48.889423 -191.013107 -354.403992
48.054352 -191.013107 -354.403992
47.219284 -191.013107 -354.403992
46.384212 -191.013107 -354.403992
45.549145 -191.013107 -354.403992
44.714073 -191.013107 -354.403992
43.879005 -191.013107 -354.403992
43.043934 -191.013107 -354.403992
42.208866 -191.013107 -354.403992
41.373795 -191.013107 -354.403992
40.538727 -191.013107 -354.403992
39.703655 -191.013107 -354.403992
0.592804 -3.044034 -5.647872
0.579496 -3.044034 -5.647872
0.563941 -3.031954 -5.625460
0.550686 -3.031954 -5.625460
0.537431 -3.031954 -5.625460
0.524176 -3.031954 -5.625460
0.510921 -3.031954 -5.625460
0.497666 -3.031954 -5.625460
0.484411 -3.031954 -5.625460
0.473033 -3.044034 -5.647872
0.459725 -3.044034 -5.647872
0.448203 -3.056210 -5.670464
0.434842 -3.056210 -5.670464
0.426600 -3.093330 -5.739336
0.413076 -3.093330 -5.739336
0.401177 -3.105904 -5.762667
0.387599 -3.105904 -5.762667
0.377086 -3.131362 -5.809902
0.363397 -3.131362 -5.809902
0.349707 -3.131362 -5.809902
0.336017 -3.131362 -5.809902
0.322328 -3.131362 -5.809902
0.308638 -3.131362 -5.809902
0.294948 -3.131362 -5.809902
0.281259 -3.131362 -5.809902
0.177432 -2.996284 -5.559278
0.164333 -2.996284 -5.559278
0.151234 -2.996284 -5.559278
0.138135 -2.996284 -5.559278
0.125035 -2.996284 -5.559278
0.111936 -2.996284 -5.559278
0.098837 -2.996284 -5.559278
0.085738 -2.996284 -5.559278
0.072639 -2.996284 -5.559278
0.059540 -2.996284 -5.559278
0.046441 -2.996284 -5.559278
0.033342 -2.996284 -5.559278
0.020242 -2.996284 -5.559278
-19.586290 -191.013107 -354.403992
-20.421360 -191.013107 -354.403992
-21.256430 -191.013107 -354.403992
-22.091499 -191.013107 -354.403992
-22.926569 -191.013107 -354.403992
-23.761639 -191.013107 -354.403992
-24.596708 -191.013107 -354.403992
-25.431778 -191.013107 -354.403992
-1.328825 -3.056210 -5.670464
-1.336839 -3.044034 -5.647872
-1.344789 -3.031954 -5.625460
-1.352677 -3.019970 -5.603225
-1.365879 -3.019970 -5.603225
-1.429950 -3.131362 -5.809902
-1.443639 -3.131362 -5.809902
-1.477072 -3.144248 -5.833811
-1.490818 -3.144248 -5.833811
-1.504564 -3.144248 -5.833811
-1.518310 -3.144248 -5.833811
-1.532056 -3.144248 -5.833811
-1.545802 -3.144248 -5.833811
-1.559548 -3.144248 -5.833811
-1.573294 -3.144248 -5.833811
-1.587040 -3.144248 -5.833811
-1.600786 -3.144248 -5.833811
-1.614532 -3.144248 -5.833811
-1.628278 -3.144248 -5.833811
-2.272645 -3.031954 -5.625460
-2.276864 -3.019970 -5.603225
-2.272106 -2.996284 -5.559278
-2.303270 -3.019970 -5.603225
-2.298304 -2.996284 -5.559278
-2.311403 -2.996284 -5.559278
-2.324502 -2.996284 -5.559278
-2.356080 -3.019970 -5.603225
-2.369283 -3.019970 -5.603225
-2.382486 -3.019970 -5.603225
-2.395689 -3.019970 -5.603225
-2.408891 -3.019970 -5.603225
-2.431705 -3.031954 -5.625460
-2.849653 -3.157241 -5.857917
-2.863456 -3.157241 -5.857917
-2.865418 -3.144248 -5.833811
-2.879164 -3.144248 -5.833811
-2.892910 -3.144248 -5.833811
-2.906657 -3.144248 -5.833811
-2.920403 -3.144248 -5.833811
-2.922123 -3.131362 -5.809902
-2.935813 -3.131362 -5.809902
-2.949503 -3.131362 -5.809902
-2.951098 -3.118581 -5.786188
-2.989133 -3.144248 -5.833811
-3.134408 -3.237510 -6.006847
-3.135277 -3.223850 -5.981502
-3.149371 -3.223850 -5.981502
-3.163465 -3.223850 -5.981502
-3.177559 -3.223850 -5.981502
-3.191653 -3.223850 -5.981502
-3.205747 -3.223850 -5.981502
-3.206312 -3.210304 -5.956370
-3.220347 -3.210304 -5.956370
-3.261792 -3.237510 -6.006847
-3.275945 -3.237510 -6.006847
-3.290099 -3.237510 -6.006847
-3.304253 -3.237510 -6.006847
-3.318407 -3.237510 -6.006847
-3.318499 -3.223850 -5.981502
-3.318590 -3.210304 -5.956370
-3.332625 -3.210304 -5.956370
-3.360781 -3.223850 -5.981502
-3.389175 -3.237510 -6.006847
-42.831505 -38.202621 -70.880798
-42.998516 -38.202621 -70.880798
-43.165531 -38.202621 -70.880798
-43.332546 -38.202621 -70.880798
-43.499561 -38.202621 -70.880798
-43.666573 -38.202621 -70.880798
-43.833588 -38.202621 -70.880798
-44.000603 -38.202621 -70.880798
-44.167614 -38.202621 -70.880798
-44.334629 -38.202621 -70.880798
-44.501644 -38.202621 -70.880798
-44.668655 -38.202621 -70.880798
-44.835670 -38.202621 -70.880798
-45.002686 -38.202621 -70.880798
-45.169701 -38.202621 -70.880798
-45.336712 -38.202621 -70.880798
-45.503727 -38.202621 -70.880798
-45.670742 -38.202621 -70.880798
-45.837753 -38.202621 -70.880798
-46.004768 -38.202621 -70.880798
-46.171783 -38.202621 -70.880798
-48.777679 -40.213284 -74.611366
-48.953484 -40.213284 -74.611366
-49.129288 -40.213284 -74.611366
-49.305092 -40.213284 -74.611366
-49.480896 -40.213284 -74.611366
-49.656700 -40.213284 -74.611366
-52.600979 -42.447357 -78.756447
-59.384869 -47.753277 -88.600998
-59.593636 -47.753277 -88.600998
-59.802402 -47.753277 -88.600998
-60.011169 -47.753277 -88.600998
-60.219936 -47.753277 -88.600998
-60.428703 -47.753277 -88.600998
-64.679970 -50.936825 -94.507729
-69.538559 -54.575172 -101.258286
-81.406677 -63.671032 -118.134666
-81.685036 -63.671032 -118.134666
-81.963387 -63.671032 -118.134666
-82.241745 -63.671032 -118.134666
-82.520103 -63.671032 -118.134666
-82.798462 -63.671032 -118.134666
-76.686287 -58.773262 -109.047386
-76.943237 -58.773262 -109.047386
-83.633530 -63.671032 -118.134666
-83.911888 -63.671032 -118.134666
-91.843903 -69.459312 -128.874176
-253.405792 -191.013107 -354.403992
-254.240860 -191.013107 -354.403992
-255.075928 -191.013107 -354.403992
-255.910995 -191.013107 -354.403992
-256.746063 -191.013107 -354.403992
-257.581146 -191.013107 -354.403992
-258.416199 -191.013107 -354.403992
-259.251282 -191.013107 -354.403992
-260.086365 -191.013107 -354.403992
-260.921417 -191.013107 -354.403992
-261.756500 -191.013107 -354.403992
3.390036 -3.224339 -5.956370
3.376002 -3.224339 -5.956370
3.361967 -3.224339 -5.956370
3.347932 -3.224339 -5.956370
3.333897 -3.224339 -5.956370
3.319863 -3.224339 -5.956370
3.305828 -3.224339 -5.956370
3.278020 -3.210848 -5.931448
3.264044 -3.210848 -5.931448
3.250068 -3.210848 -5.931448
3.222608 -3.197469 -5.906733
3.208690 -3.197469 -5.906733
3.181516 -3.184202 -5.882224
3.167656 -3.184202 -5.882224
3.140764 -3.171044 -5.857917
3.126961 -3.171044 -5.857917
3.113158 -3.171044 -5.857917
3.086601 -3.157995 -5.833811
3.072855 -3.157995 -5.833811
3.059108 -3.157995 -5.833811
3.032881 -3.145052 -5.809902
3.019192 -3.145052 -5.809902
3.005502 -3.145052 -5.809902
2.991812 -3.145052 -5.809902
2.978123 -3.145052 -5.809902
2.964433 -3.145052 -5.809902
2.950744 -3.145052 -5.809902
2.937054 -3.145052 -5.809902
2.923364 -3.145052 -5.809902
2.909675 -3.145052 -5.809902
2.895985 -3.145052 -5.809902
2.870531 -3.132215 -5.786188
2.856897 -3.132215 -5.786188
2.831705 -3.119483 -5.762667
2.806717 -3.106853 -5.739336
2.793194 -3.106853 -5.739336
2.779671 -3.106853 -5.739336
2.766147 -3.106853 -5.739336
2.741524 -3.094325 -5.716194
2.728056 -3.094325 -5.716194
2.714587 -3.094325 -5.716194
2.701118 -3.094325 -5.716194
2.687649 -3.094325 -5.716194
2.674180 -3.094325 -5.716194
2.660711 -3.094325 -5.716194
2.647243 -3.094325 -5.716194
2.623196 -3.081898 -5.693237
2.609782 -3.081898 -5.693237
2.596367 -3.081898 -5.693237
2.572620 -3.069571 -5.670464
2.559259 -3.069571 -5.670464
2.545898 -3.069571 -5.670464
2.532537 -3.069571 -5.670464
2.519176 -3.069571 -5.670464
2.505815 -3.069571 -5.670464
2.482523 -3.057341 -5.647872
2.469215 -3.057341 -5.647872
2.455908 -3.057341 -5.647872
2.442600 -3.057341 -5.647872
2.419652 -3.045209 -5.625460
2.406397 -3.045209 -5.625460
2.393142 -3.045209 -5.625460
2.379887 -3.045209 -5.625460
2.366632 -3.045209 -5.625460
2.353376 -3.045209 -5.625460
2.340121 -3.045209 -5.625460
2.326866 -3.045209 -5.625460
2.313611 -3.045209 -5.625460
2.291264 -3.033173 -5.603225
2.278061 -3.033173 -5.603225
2.273846 -3.045209 -5.625460
2.260591 -3.045209 -5.625460
2.247336 -3.045209 -5.625460
2.225250 -3.033173 -5.603225
2.212048 -3.033173 -5.603225
2.207571 -3.045209 -5.625460
2.194315 -3.045209 -5.625460
2.181060 -3.045209 -5.625460
2.167805 -3.045209 -5.625460
2.154550 -3.045209 -5.625460
2.141295 -3.045209 -5.625460
2.128040 -3.045209 -5.625460
2.114785 -3.045209 -5.625460
2.101530 -3.045209 -5.625460
2.088275 -3.045209 -5.625460
2.066818 -3.033173 -5.603225
2.037509 -3.009383 -5.559278
2.024410 -3.009383 -5.559278
2.011310 -3.009383 -5.559278
1.998211 -3.009383 -5.559278
1.985112 -3.009383 -5.559278
1.972013 -3.009383 -5.559278
1.958914 -3.009383 -5.559278
1.945815 -3.009383 -5.559278
1.932716 -3.009383 -5.559278
1.934791 -3.033173 -5.603225
1.921589 -3.033173 -5.603225
1.915959 -3.045209 -5.625460
1.902704 -3.045209 -5.625460
1.889449 -3.045209 -5.625460
1.876194 -3.045209 -5.625460
1.862939 -3.045209 -5.625460
1.849684 -3.045209 -5.625460
1.829170 -3.033173 -5.603225
1.801724 -3.009383 -5.559278
1.788625 -3.009383 -5.559278
1.775526 -3.009383 -5.559278
1.762427 -3.009383 -5.559278
1.749328 -3.009383 -5.559278
1.736229 -3.009383 -5.559278
1.723130 -3.009383 -5.559278
1.710030 -3.009383 -5.559278
1.696931 -3.009383 -5.559278
1.683832 -3.009383 -5.559278
1.670733 -3.009383 -5.559278
1.657634 -3.009383 -5.559278
1.644535 -3.009383 -5.559278
1.631436 -3.009383 -5.559278
1.618336 -3.009383 -5.559278
1.605237 -3.009383 -5.559278
1.592138 -3.009383 -5.559278
1.579039 -3.009383 -5.559278
1.565940 -3.009383 -5.559278
1.552841 -3.009383 -5.559278
1.539742 -3.009383 -5.559278
1.526643 -3.009383 -5.559278
1.513543 -3.009383 -5.559278
1.500444 -3.009383 -5.559278
1.487345 -3.009383 -5.559278
1.474246 -3.009383 -5.559278
1.461147 -3.009383 -5.559278
1.448048 -3.009383 -5.559278
1.434949 -3.009383 -5.559278
1.421849 -3.009383 -5.559278
1.408750 -3.009383 -5.559278
1.395651 -3.009383 -5.559278
1.382552 -3.009383 -5.559278
1.369453 -3.009383 -5.559278
1.356354 -3.009383 -5.559278
1.343255 -3.009383 -5.559278
1.330156 -3.009383 -5.559278
1.317056 -3.009383 -5.559278
1.303957 -3.009383 -5.559278
1.290858 -3.009383 -5.559278
1.277759 -3.009383 -5.559278
1.264660 -3.009383 -5.559278
1.251561 -3.009383 -5.559278
1.238462 -3.009383 -5.559278
1.225363 -3.009383 -5.559278
1.212263 -3.009383 -5.559278
1.199164 -3.009383 -5.559278
1.186065 -3.009383 -5.559278
1.172966 -3.009383 -5.559278
1.159867 -3.009383 -5.559278
1.146768 -3.009383 -5.559278
1.133669 -3.009383 -5.559278
1.120569 -3.009383 -5.559278
1.107470 -3.009383 -5.559278
1.094371 -3.009383 -5.559278
1.081272 -3.009383 -5.559278
1.068173 -3.009383 -5.559278
1.055074 -3.009383 -5.559278
1.041975 -3.009383 -5.559278
1.028876 -3.009383 -5.559278
1.015776 -3.009383 -5.559278
1.002677 -3.009383 -5.559278
0.989578 -3.009383 -5.559278
0.976479 -3.009383 -5.559278
0.963380 -3.009383 -5.559278
0.950281 -3.009383 -5.559278
0.937182 -3.009383 -5.559278
0.924082 -3.009383 -5.559278
0.910983 -3.009383 -5.559278
0.897884 -3.009383 -5.559278
0.884785 -3.009383 -5.559278
0.871686 -3.009383 -5.559278
0.858587 -3.009383 -5.559278
0.845488 -3.009383 -5.559278
0.832389 -3.009383 -5.559278
0.819289 -3.009383 -5.559278
0.806190 -3.009383 -5.559278
0.793091 -3.009383 -5.559278
49.724491 -191.848175 -354.403992
48.889423 -191.848175 -354.403992
48.054352 -191.848175 -354.403992
47.219284 -191.848175 -354.403992
46.384212 -191.848175 -354.403992
45.549145 -191.848175 -354.403992
44.714073 -191.848175 -354.403992
43.879005 -191.848175 -354.403992
43.043934 -191.848175 -354.403992
42.208866 -191.848175 -354.403992
41.373795 -191.848175 -354.403992
40.538727 -191.848175 -354.403992
39.703655 -191.848175 -354.403992
38.868587 -191.848175 -354.403992
37.198448 -191.848175 -354.403992
0.577196 -3.045209 -5.625460
0.563941 -3.045209 -5.625460
0.550686 -3.045209 -5.625460
0.535307 -3.033173 -5.603225
0.522104 -3.033173 -5.603225
0.504910 -3.009383 -5.559278
0.495699 -3.033173 -5.603225
0.482496 -3.033173 -5.603225
0.469294 -3.033173 -5.603225
0.457901 -3.045209 -5.625460
0.446417 -3.057341 -5.647872
0.433109 -3.057341 -5.647872
0.421481 -3.069571 -5.670464
0.413076 -3.106853 -5.739336
0.401177 -3.119483 -5.762667
0.387599 -3.119483 -5.762667
0.377086 -3.145052 -5.809902
0.363397 -3.145052 -5.809902
0.349707 -3.145052 -5.809902
0.337400 -3.157995 -5.833811
0.323654 -3.157995 -5.833811
0.309908 -3.157995 -5.833811
0.296162 -3.157995 -5.833811
0.282416 -3.157995 -5.833811
0.177432 -3.009383 -5.559278
0.164333 -3.009383 -5.559278
0.151234 -3.009383 -5.559278
0.138135 -3.009383 -5.559278
0.125035 -3.009383 -5.559278
0.111936 -3.009383 -5.559278
0.098837 -3.009383 -5.559278
0.085738 -3.009383 -5.559278
0.072639 -3.009383 -5.559278
0.059540 -3.009383 -5.559278
0.046441 -3.009383 -5.559278
0.033342 -3.009383 -5.559278
0.020242 -3.009383 -5.559278
0.007143 -3.009383 -5.559278
-0.005956 -3.009383 -5.559278
-19.586290 -191.848175 -354.403992
-20.421360 -191.848175 -354.403992
-21.256430 -191.848175 -354.403992
-22.091499 -191.848175 -354.403992
-22.926569 -191.848175 -354.403992
-23.761639 -191.848175 -354.403992
-24.596708 -191.848175 -354.403992
-1.342186 -3.069571 -5.670464
-1.344789 -3.045209 -5.625460
-1.342067 -3.009383 -5.559278
-1.355166 -3.009383 -5.559278
-1.490818 -3.157995 -5.833811
-1.504564 -3.157995 -5.833811
-1.518310 -3.157995 -5.833811
-1.532056 -3.157995 -5.833811
-1.545802 -3.157995 -5.833811
-1.559548 -3.157995 -5.833811
-1.573294 -3.157995 -5.833811
-1.587040 -3.157995 -5.833811
-1.600786 -3.157995 -5.833811
-1.614532 -3.157995 -5.833811
-1.628278 -3.157995 -5.833811
-1.642024 -3.157995 -5.833811
-2.277464 -3.069571 -5.670464
-2.281699 -3.057341 -5.647872
-2.285899 -3.045209 -5.625460
-2.299155 -3.045209 -5.625460
-2.312410 -3.045209 -5.625460
-2.325665 -3.045209 -5.625460
-2.338920 -3.045209 -5.625460
-2.352175 -3.045209 -5.625460
-2.365430 -3.045209 -5.625460
-2.378685 -3.045209 -5.625460
-2.391940 -3.045209 -5.625460
-2.395689 -3.033173 -5.603225
-2.418450 -3.045209 -5.625460
-2.431705 -3.045209 -5.625460
-2.782943 -3.157995 -5.833811
-2.796689 -3.157995 -5.833811
-2.810435 -3.157995 -5.833811
-2.835851 -3.171044 -5.857917
-2.837927 -3.157995 -5.833811
-2.851672 -3.157995 -5.833811
-2.865418 -3.157995 -5.833811
-2.879164 -3.157995 -5.833811
-2.892910 -3.157995 -5.833811
-2.894744 -3.145052 -5.809902
-2.908434 -3.145052 -5.809902
-2.922123 -3.145052 -5.809902
-2.935813 -3.145052 -5.809902
-2.949503 -3.145052 -5.809902
-2.951098 -3.132215 -5.786188
-2.976882 -3.145052 -5.809902
-3.134408 -3.251664 -6.006847
-3.148562 -3.251664 -6.006847
-3.162716 -3.251664 -6.006847
-3.176869 -3.251664 -6.006847
-3.191023 -3.251664 -6.006847
-3.205177 -3.251664 -6.006847
-3.219331 -3.251664 -6.006847
-3.219841 -3.237944 -5.981502
-3.247638 -3.251664 -6.006847
-3.261792 -3.251664 -6.006847
-3.275945 -3.251664 -6.006847
-3.290099 -3.251664 -6.006847
-3.304253 -3.251664 -6.006847
-3.318407 -3.251664 -6.006847
-3.332560 -3.251664 -6.006847
-3.346714 -3.251664 -6.006847
-3.360868 -3.251664 -6.006847
-3.375021 -3.251664 -6.006847
-3.389175 -3.251664 -6.006847
-3.417811 -3.265501 -6.032408
-42.664490 -38.369633 -70.880798
-42.831505 -38.369633 -70.880798
-42.998516 -38.369633 -70.880798
-43.165531 -38.369633 -70.880798
-43.332546 -38.369633 -70.880798
-43.499561 -38.369633 -70.880798
-43.666573 -38.369633 -70.880798
-43.833588 -38.369633 -70.880798
-44.000603 -38.369633 -70.880798
-44.167614 -38.369633 -70.880798
-44.334629 -38.369633 -70.880798
-44.501644 -38.369633 -70.880798
-44.668655 -38.369633 -70.880798
-44.835670 -38.369633 -70.880798
-45.002686 -38.369633 -70.880798
-45.169701 -38.369633 -70.880798
-45.336712 -38.369633 -70.880798
-45.503727 -38.369633 -70.880798
-45.670742 -38.369633 -70.880798
-45.837753 -38.369633 -70.880798
-46.004768 -38.369633 -70.880798
-46.171783 -38.369633 -70.880798
-48.777679 -40.389088 -74.611366
-48.953484 -40.389088 -74.611366
-49.129288 -40.389088 -74.611366
-49.305092 -40.389088 -74.611366
-49.480896 -40.389088 -74.611366
-49.656700 -40.389088 -74.611366
-52.600979 -42.632927 -78.756447
-55.891640 -45.140747 -83.389175
-59.593636 -47.962044 -88.600998
-59.802402 -47.962044 -88.600998
-60.011169 -47.962044 -88.600998
-60.219936 -47.962044 -88.600998
-60.428703 -47.962044 -88.600998
-60.637470 -47.962044 -88.600998
-64.902657 -51.159512 -94.507729
-65.125343 -51.159512 -94.507729
-75.401566 -59.030205 -109.047386
-81.963387 -63.949390 -118.134666
-82.241745 -63.949390 -118.134666
-82.520103 -63.949390 -118.134666
-76.429344 -59.030205 -109.047386
-76.686287 -59.030205 -109.047386
-71.447289 -54.813763 -101.258286
-71.685883 -54.813763 -101.258286
-77.457123 -59.030205 -109.047386
-77.714066 -59.030205 -109.047386
-84.468597 -63.949390 -118.134666
-255.910995 -191.848175 -354.403992
-256.746063 -191.848175 -354.403992
-257.581146 -191.848175 -354.403992
-258.416199 -191.848175 -354.403992
-259.251282 -191.848175 -354.403992
-260.086365 -191.848175 -354.403992
-260.921417 -191.848175 -354.403992
-261.756500 -191.848175 -354.403992
3.404071 -3.238374 -5.956370
3.390036 -3.238374 -5.956370
3.376002 -3.238374 -5.956370
3.361967 -3.238374 -5.956370
3.347932 -3.238374 -5.956370
3.333897 -3.238374 -5.956370
3.319863 -3.238374 -5.956370
3.291996 -3.224824 -5.931448
3.278020 -3.224824 -5.931448
3.264044 -3.224824 -5.931448
3.236526 -3.211387 -5.906733
3.222608 -3.211387 -5.906733
3.195376 -3.198062 -5.882224
3.181516 -3.198062 -5.882224
3.167656 -3.198062 -5.882224
3.140764 -3.184847 -5.857917
3.126961 -3.184847 -5.857917
3.100347 -3.171741 -5.833811
3.086601 -3.171741 -5.833811
3.072855 -3.171741 -5.833811
3.046571 -3.158742 -5.809902
3.032881 -3.158742 -5.809902
3.019192 -3.158742 -5.809902
3.005502 -3.158742 -5.809902
2.991812 -3.158742 -5.809902
2.978123 -3.158742 -5.809902
2.964433 -3.158742 -5.809902
2.950744 -3.158742 -5.809902
2.937054 -3.158742 -5.809902
2.923364 -3.158742 -5.809902
2.909675 -3.158742 -5.809902
2.884165 -3.145849 -5.786188
2.858862 -3.133061 -5.762667
2.845284 -3.133061 -5.762667
2.820241 -3.120376 -5.739336
2.806717 -3.120376 -5.739336
2.793194 -3.120376 -5.739336
2.768462 -3.107794 -5.716194
2.754993 -3.107794 -5.716194
2.741524 -3.107794 -5.716194
2.728056 -3.107794 -5.716194
2.714587 -3.107794 -5.716194
2.701118 -3.107794 -5.716194
2.687649 -3.107794 -5.716194
2.674180 -3.107794 -5.716194
2.660711 -3.107794 -5.716194
2.636611 -3.095313 -5.693237
2.623196 -3.095313 -5.693237
2.609782 -3.095313 -5.693237
2.585981 -3.082932 -5.670464
2.572620 -3.082932 -5.670464
2.559259 -3.082932 -5.670464
2.545898 -3.082932 -5.670464
2.532537 -3.082932 -5.670464
2.509139 -3.070649 -5.647872
2.495831 -3.070649 -5.647872
2.482523 -3.070649 -5.647872
2.469215 -3.070649 -5.647872
2.446162 -3.058464 -5.625460
2.432907 -3.058464 -5.625460
2.419652 -3.058464 -5.625460
2.406397 -3.058464 -5.625460
2.383682 -3.046375 -5.603225
2.370480 -3.046375 -5.603225
2.357277 -3.046375 -5.603225
2.344074 -3.046375 -5.603225
2.330872 -3.046375 -5.603225
2.317669 -3.046375 -5.603225
2.286392 -3.022482 -5.559278
2.273293 -3.022482 -5.559278
2.260194 -3.022482 -5.559278
2.247095 -3.022482 -5.559278
2.251656 -3.046375 -5.603225
2.238453 -3.046375 -5.603225
2.225250 -3.046375 -5.603225
2.212048 -3.046375 -5.603225
2.198845 -3.046375 -5.603225
2.185642 -3.046375 -5.603225
2.172440 -3.046375 -5.603225
2.167805 -3.058464 -5.625460
2.154550 -3.058464 -5.625460
2.141295 -3.058464 -5.625460
2.128040 -3.058464 -5.625460
2.114785 -3.058464 -5.625460
2.093224 -3.046375 -5.603225
2.080021 -3.046375 -5.603225
2.050608 -3.022482 -5.559278
2.037509 -3.022482 -5.559278
2.024410 -3.022482 -5.559278
2.011310 -3.022482 -5.559278
1.998211 -3.022482 -5.559278
1.985112 -3.022482 -5.559278
1.972013 -3.022482 -5.559278
1.958914 -3.022482 -5.559278
1.945815 -3.022482 -5.559278
1.932716 -3.022482 -5.559278
1.919616 -3.022482 -5.559278
1.921589 -3.046375 -5.603225
1.908386 -3.046375 -5.603225
1.895183 -3.046375 -5.603225
1.889449 -3.058464 -5.625460
1.876194 -3.058464 -5.625460
1.862939 -3.058464 -5.625460
1.842373 -3.046375 -5.603225
1.814823 -3.022482 -5.559278
1.801724 -3.022482 -5.559278
1.788625 -3.022482 -5.559278
1.775526 -3.022482 -5.559278
1.762427 -3.022482 -5.559278
1.749328 -3.022482 -5.559278
1.736229 -3.022482 -5.559278
1.723130 -3.022482 -5.559278
1.710030 -3.022482 -5.559278
1.696931 -3.022482 -5.559278
1.683832 -3.022482 -5.559278
1.670733 -3.022482 -5.559278
1.657634 -3.022482 -5.559278
1.644535 -3.022482 -5.559278
1.631436 -3.022482 -5.559278
1.618336 -3.022482 -5.559278
1.605237 -3.022482 -5.559278
1.592138 -3.022482 -5.559278
1.579039 -3.022482 -5.559278
1.565940 -3.022482 -5.559278
1.552841 -3.022482 -5.559278
1.539742 -3.022482 -5.559278
1.526643 -3.022482 -5.559278
1.513543 -3.022482 -5.559278
1.500444 -3.022482 -5.559278
1.487345 -3.022482 -5.559278
1.474246 -3.022482 -5.559278
1.461147 -3.022482 -5.559278
1.448048 -3.022482 -5.559278
1.434949 -3.022482 -5.559278
1.421849 -3.022482 -5.559278
1.408750 -3.022482 -5.559278
1.395651 -3.022482 -5.559278
1.382552 -3.022482 -5.559278
1.369453 -3.022482 -5.559278
1.356354 -3.022482 -5.559278
1.343255 -3.022482 -5.559278
1.330156 -3.022482 -5.559278
1.317056 -3.022482 -5.559278
1.303957 -3.022482 -5.559278
1.290858 -3.022482 -5.559278
1.277759 -3.022482 -5.559278
1.264660 -3.022482 -5.559278
1.251561 -3.022482 -5.559278
1.238462 -3.022482 -5.559278
1.225363 -3.022482 -5.559278
1.212263 -3.022482 -5.559278
1.199164 -3.022482 -5.559278
1.186065 -3.022482 -5.559278
1.172966 -3.022482 -5.559278
1.159867 -3.022482 -5.559278
1.146768 -3.022482 -5.559278
1.133669 -3.022482 -5.559278
1.120569 -3.022482 -5.559278
1.107470 -3.022482 -5.559278
1.094371 -3.022482 -5.559278
1.081272 -3.022482 -5.559278
1.068173 -3.022482 -5.559278
1.055074 -3.022482 -5.559278
1.041975 -3.022482 -5.559278
1.028876 -3.022482 -5.559278
1.015776 -3.022482 -5.559278
1.002677 -3.022482 -5.559278
0.989578 -3.022482 -5.559278
0.976479 -3.022482 -5.559278
0.963380 -3.022482 -5.559278
0.950281 -3.022482 -5.559278
0.937182 -3.022482 -5.559278
0.924082 -3.022482 -5.559278
0.910983 -3.022482 -5.559278
0.897884 -3.022482 -5.559278
0.884785 -3.022482 -5.559278
0.871686 -3.022482 -5.559278
0.858587 -3.022482 -5.559278
0.845488 -3.022482 -5.559278
0.832389 -3.022482 -5.559278
0.819289 -3.022482 -5.559278
0.806190 -3.022482 -5.559278
0.793091 -3.022482 -5.559278
0.779992 -3.022482 -5.559278
48.889423 -192.683243 -354.403992
48.054352 -192.683243 -354.403992
47.219284 -192.683243 -354.403992
46.384212 -192.683243 -354.403992
45.549145 -192.683243 -354.403992
44.714073 -192.683243 -354.403992
43.879005 -192.683243 -354.403992
43.043934 -192.683243 -354.403992
42.208866 -192.683243 -354.403992
41.373795 -192.683243 -354.403992
40.538727 -192.683243 -354.403992
39.703655 -192.683243 -354.403992
38.868587 -192.683243 -354.403992
38.033516 -192.683243 -354.403992
37.198448 -192.683243 -354.403992
36.363377 -192.683243 -354.403992
0.563941 -3.058464 -5.625460
0.548510 -3.046375 -5.603225
0.535307 -3.046375 -5.603225
0.518009 -3.022482 -5.559278
0.504910 -3.022482 -5.559278
0.491811 -3.022482 -5.559278
0.478712 -3.022482 -5.559278
0.465613 -3.022482 -5.559278
0.456091 -3.046375 -5.603225
0.444646 -3.058464 -5.625460
0.431391 -3.058464 -5.625460
0.419801 -3.070649 -5.647872
0.408120 -3.082932 -5.670464
0.399553 -3.120376 -5.739336
0.387599 -3.133061 -5.762667
0.377086 -3.158742 -5.809902
0.363397 -3.158742 -5.809902
0.351146 -3.171741 -5.833811
0.337400 -3.171741 -5.833811
0.323654 -3.171741 -5.833811
0.309908 -3.171741 -5.833811
0.296162 -3.171741 -5.833811
0.282416 -3.171741 -5.833811
0.151234 -3.022482 -5.559278
0.138135 -3.022482 -5.559278
0.125035 -3.022482 -5.559278
0.111936 -3.022482 -5.559278
0.098837 -3.022482 -5.559278
0.085738 -3.022482 -5.559278
0.072639 -3.022482 -5.559278
0.059540 -3.022482 -5.559278
0.046441 -3.022482 -5.559278
0.033342 -3.022482 -5.559278
0.020242 -3.022482 -5.559278
0.007143 -3.022482 -5.559278
-0.005956 -3.022482 -5.559278
-0.019055 -3.022482 -5.559278
-1.342067 -3.022482 -5.559278
-1.355166 -3.022482 -5.559278
-1.504564 -3.171741 -5.833811
-1.518310 -3.171741 -5.833811
-1.532056 -3.171741 -5.833811
-1.545802 -3.171741 -5.833811
-1.559548 -3.171741 -5.833811
-1.573294 -3.171741 -5.833811
-1.587040 -3.171741 -5.833811
-1.600786 -3.171741 -5.833811
-1.614532 -3.171741 -5.833811
-1.621605 -3.158742 -5.809902
-1.635295 -3.158742 -5.809902
-2.255424 -3.107794 -5.716194
-2.268893 -3.107794 -5.716194
-2.282362 -3.107794 -5.716194
-2.277464 -3.082932 -5.670464
-2.290826 -3.082932 -5.670464
-2.295007 -3.070649 -5.647872
-2.308315 -3.070649 -5.647872
-2.321622 -3.070649 -5.647872
-2.334930 -3.070649 -5.647872
-2.348238 -3.070649 -5.647872
-2.361546 -3.070649 -5.647872
-2.374854 -3.070649 -5.647872
-2.388162 -3.070649 -5.647872
-2.391940 -3.058464 -5.625460
-2.405195 -3.058464 -5.625460
-2.418450 -3.058464 -5.625460
-2.441393 -3.070649 -5.647872
-2.769197 -3.171741 -5.833811
-2.782943 -3.171741 -5.833811
-2.796689 -3.171741 -5.833811
-2.810435 -3.171741 -5.833811
-2.824181 -3.171741 -5.833811
-2.837927 -3.171741 -5.833811
-2.851672 -3.171741 -5.833811
-2.865418 -3.171741 -5.833811
-2.879164 -3.171741 -5.833811
-2.881054 -3.158742 -5.809902
-2.894744 -3.158742 -5.809902
-2.908434 -3.158742 -5.809902
-2.922123 -3.158742 -5.809902
-2.935813 -3.158742 -5.809902
-2.949503 -3.158742 -5.809902
-2.963192 -3.158742 -5.809902
-2.989133 -3.171741 -5.833811
-3.134408 -3.265818 -6.006847
-3.148562 -3.265818 -6.006847
-3.162716 -3.265818 -6.006847
-3.176869 -3.265818 -6.006847
-3.191023 -3.265818 -6.006847
-3.261458 -3.279715 -6.032408
-3.275672 -3.279715 -6.032408
-3.275945 -3.265818 -6.006847
-3.290099 -3.265818 -6.006847
-3.318313 -3.279715 -6.032408
-3.332527 -3.279715 -6.032408
-3.332560 -3.265818 -6.006847
-3.346714 -3.265818 -6.006847
-3.360868 -3.265818 -6.006847
-3.389383 -3.279715 -6.032408
-3.403597 -3.279715 -6.032408
-3.432417 -3.293730 -6.058188
-3.461484 -3.307867 -6.084189
-42.664490 -38.536648 -70.880798
-42.831505 -38.536648 -70.880798
-42.998516 -38.536648 -70.880798
-43.165531 -38.536648 -70.880798
-43.332546 -38.536648 -70.880798
-43.499561 -38.536648 -70.880798
-43.666573 -38.536648 -70.880798
-43.833588 -38.536648 -70.880798
-44.000603 -38.536648 -70.880798
-44.167614 -38.536648 -70.880798
-44.334629 -38.536648 -70.880798
-44.501644 -38.536648 -70.880798
-44.668655 -38.536648 -70.880798
-44.835670 -38.536648 -70.880798
-45.002686 -38.536648 -70.880798
-45.169701 -38.536648 -70.880798
-45.336712 -38.536648 -70.880798
-45.503727 -38.536648 -70.880798
-45.670742 -38.536648 -70.880798
-45.837753 -38.536648 -70.880798
-46.004768 -38.536648 -70.880798
-46.171783 -38.536648 -70.880798
-48.777679 -40.564892 -74.611366
-48.953484 -40.564892 -74.611366
-49.129288 -40.564892 -74.611366
-49.305092 -40.564892 -74.611366
-49.480896 -40.564892 -74.611366
-49.656700 -40.564892 -74.611366
-52.600979 -42.818497 -78.756447
-55.891640 -45.337234 -83.389175
-59.593636 -48.170811 -88.600998
-59.802402 -48.170811 -88.600998
-60.011169 -48.170811 -88.600998
-60.219936 -48.170811 -88.600998
-64.457283 -51.382198 -94.507729
-64.679970 -51.382198 -94.507729
-64.902657 -51.382198 -94.507729
-65.125343 -51.382198 -94.507729
-70.015739 -55.052353 -101.258286
-75.658516 -59.287151 -109.047386
-75.915459 -59.287151 -109.047386
-76.172401 -59.287151 -109.047386
-76.429344 -59.287151 -109.047386
-71.208702 -55.052353 -101.258286
-71.447289 -55.052353 -101.258286
-71.685883 -55.052353 -101.258286
-71.924469 -55.052353 -101.258286
-72.163063 -55.052353 -101.258286
-72.401657 -55.052353 -101.258286
-78.227959 -59.287151 -109.047386
-256.746063 -192.683243 -354.403992
-257.581146 -192.683243 -354.403992
-258.416199 -192.683243 -354.403992
-259.251282 -192.683243 -354.403992
-260.086365 -192.683243 -354.403992
-260.921417 -192.683243 -354.403992
-261.756500 -192.683243 -354.403992
3.404071 -3.252409 -5.956370
3.390036 -3.252409 -5.956370
3.376002 -3.252409 -5.956370
3.361967 -3.252409 -5.956370
3.347932 -3.252409 -5.956370
3.333897 -3.252409 -5.956370
3.305972 -3.238800 -5.931448
3.291996 -3.238800 -5.931448
3.278020 -3.238800 -5.931448
3.250443 -3.225305 -5.906733
3.236526 -3.225305 -5.906733
3.222608 -3.225305 -5.906733
3.195376 -3.211922 -5.882224
3.181516 -3.211922 -5.882224
3.154566 -3.198650 -5.857917
3.140764 -3.198650 -5.857917
3.114093 -3.185487 -5.833811
3.100347 -3.185487 -5.833811
3.086601 -3.185487 -5.833811
3.060261 -3.172431 -5.809902
3.046571 -3.172431 -5.809902
3.032881 -3.172431 -5.809902
3.019192 -3.172431 -5.809902
3.005502 -3.172431 -5.809902
2.991812 -3.172431 -5.809902
2.965967 -3.159482 -5.786188
2.952333 -3.159482 -5.786188
2.938700 -3.159482 -5.786188
2.925066 -3.159482 -5.786188
2.911432 -3.159482 -5.786188
2.897798 -3.159482 -5.786188
2.872440 -3.146639 -5.762667
2.847288 -3.133900 -5.739336
2.833764 -3.133900 -5.739336
2.820241 -3.133900 -5.739336
2.806717 -3.133900 -5.739336
2.781931 -3.121263 -5.716194
2.768462 -3.121263 -5.716194
2.754993 -3.121263 -5.716194
2.741524 -3.121263 -5.716194
2.728056 -3.121263 -5.716194
2.714587 -3.121263 -5.716194
2.701118 -3.121263 -5.716194
2.687649 -3.121263 -5.716194
2.674180 -3.121263 -5.716194
2.650026 -3.108728 -5.693237
2.636611 -3.108728 -5.693237
2.612703 -3.096293 -5.670464
2.599342 -3.096293 -5.670464
2.585981 -3.096293 -5.670464
2.562371 -3.083957 -5.647872
2.549063 -3.083957 -5.647872
2.535755 -3.083957 -5.647872
2.522447 -3.083957 -5.647872
2.509139 -3.083957 -5.647872
2.495831 -3.083957 -5.647872
2.482523 -3.083957 -5.647872
2.459417 -3.071719 -5.625460
2.446162 -3.071719 -5.625460
2.432907 -3.071719 -5.625460
2.419652 -3.071719 -5.625460
2.396885 -3.059578 -5.603225
2.383682 -3.059578 -5.603225
2.351888 -3.035581 -5.559278
2.338789 -3.035581 -5.559278
2.325690 -3.035581 -5.559278
2.312590 -3.035581 -5.559278
2.299491 -3.035581 -5.559278
2.286392 -3.035581 -5.559278
2.273293 -3.035581 -5.559278
2.260194 -3.035581 -5.559278
2.247095 -3.035581 -5.559278
2.233996 -3.035581 -5.559278
2.220896 -3.035581 -5.559278
2.207797 -3.035581 -5.559278
2.212048 -3.059578 -5.603225
2.198845 -3.059578 -5.603225
2.185642 -3.059578 -5.603225
2.172440 -3.059578 -5.603225
2.159237 -3.059578 -5.603225
2.154550 -3.071719 -5.625460
2.141295 -3.071719 -5.625460
2.128040 -3.071719 -5.625460
2.106426 -3.059578 -5.603225
2.076806 -3.035581 -5.559278
2.063707 -3.035581 -5.559278
2.050608 -3.035581 -5.559278
2.037509 -3.035581 -5.559278
2.024410 -3.035581 -5.559278
2.011310 -3.035581 -5.559278
1.998211 -3.035581 -5.559278
1.985112 -3.035581 -5.559278
1.972013 -3.035581 -5.559278
1.958914 -3.035581 -5.559278
1.945815 -3.035581 -5.559278
1.932716 -3.035581 -5.559278
1.919616 -3.035581 -5.559278
1.906517 -3.035581 -5.559278
1.893418 -3.035581 -5.559278
1.895183 -3.059578 -5.603225
1.881981 -3.059578 -5.603225
1.868778 -3.059578 -5.603225
1.841022 -3.035581 -5.559278
1.827923 -3.035581 -5.559278
1.814823 -3.035581 -5.559278
1.801724 -3.035581 -5.559278
1.788625 -3.035581 -5.559278
1.775526 -3.035581 -5.559278
1.762427 -3.035581 -5.559278
1.749328 -3.035581 -5.559278
1.736229 -3.035581 -5.559278
1.723130 -3.035581 -5.559278
1.710030 -3.035581 -5.559278
1.696931 -3.035581 -5.559278
1.683832 -3.035581 -5.559278
1.670733 -3.035581 -5.559278
1.657634 -3.035581 -5.559278
1.644535 -3.035581 -5.559278
1.631436 -3.035581 -5.559278
1.618336 -3.035581 -5.559278
1.605237 -3.035581 -5.559278
1.592138 -3.035581 -5.559278
1.579039 -3.035581 -5.559278
1.565940 -3.035581 -5.559278
1.552841 -3.035581 -5.559278
1.539742 -3.035581 -5.559278
1.526643 -3.035581 -5.559278
1.513543 -3.035581 -5.559278
1.500444 -3.035581 -5.559278
1.487345 -3.035581 -5.559278
1.474246 -3.035581 -5.559278
1.461147 -3.035581 -5.559278
1.448048 -3.035581 -5.559278
1.434949 -3.035581 -5.559278
1.421849 -3.035581 -5.559278
1.408750 -3.035581 -5.559278
1.395651 -3.035581 -5.559278
1.382552 -3.035581 -5.559278
1.369453 -3.035581 -5.559278
1.356354 -3.035581 -5.559278
1.343255 -3.035581 -5.559278
1.330156 -3.035581 -5.559278
1.317056 -3.035581 -5.559278
1.303957 -3.035581 -5.559278
1.290858 -3.035581 -5.559278
1.277759 -3.035581 -5.559278
1.264660 -3.035581 -5.559278
1.251561 -3.035581 -5.559278
1.238462 -3.035581 -5.559278
1.225363 -3.035581 -5.559278
1.212263 -3.035581 -5.559278
1.199164 -3.035581 -5.559278
1.186065 -3.035581 -5.559278
1.172966 -3.035581 -5.559278
1.159867 -3.035581 -5.559278
1.146768 -3.035581 -5.559278
1.133669 -3.035581 -5.559278
1.120569 -3.035581 -5.559278
1.107470 -3.035581 -5.559278
1.094371 -3.035581 -5.559278
1.081272 -3.035581 -5.559278
1.068173 -3.035581 -5.559278
1.055074 -3.035581 -5.559278
1.041975 -3.035581 -5.559278
1.028876 -3.035581 -5.559278
1.015776 -3.035581 -5.559278
1.002677 -3.035581 -5.559278
0.989578 -3.035581 -5.559278
0.976479 -3.035581 -5.559278
0.963380 -3.035581 -5.559278
0.950281 -3.035581 -5.559278
0.937182 -3.035581 -5.559278
0.924082 -3.035581 -5.559278
0.910983 -3.035581 -5.559278
0.897884 -3.035581 -5.559278
0.884785 -3.035581 -5.559278
0.871686 -3.035581 -5.559278
0.858587 -3.035581 -5.559278
0.845488 -3.035581 -5.559278
0.832389 -3.035581 -5.559278
0.819289 -3.035581 -5.559278
0.806190 -3.035581 -5.559278
0.793091 -3.035581 -5.559278
0.779992 -3.035581 -5.559278
0.766893 -3.035581 -5.559278
48.054352 -193.518311 -354.403992
47.219284 -193.518311 -354.403992
46.384212 -193.518311 -354.403992
45.549145 -193.518311 -354.403992
44.714073 -193.518311 -354.403992
43.879005 -193.518311 -354.403992
43.043934 -193.518311 -354.403992
42.208866 -193.518311 -354.403992
41.373795 -193.518311 -354.403992
40.538727 -193.518311 -354.403992
39.703655 -193.518311 -354.403992
38.868587 -193.518311 -354.403992
38.033516 -193.518311 -354.403992
37.198448 -193.518311 -354.403992
0.563941 -3.071719 -5.625460
0.548510 -3.059578 -5.603225
0.531108 -3.035581 -5.559278
0.518009 -3.035581 -5.559278
0.504910 -3.035581 -5.559278
0.491811 -3.035581 -5.559278
0.478712 -3.035581 -5.559278
0.465613 -3.035581 -5.559278
0.452514 -3.035581 -5.559278
0.442888 -3.059578 -5.603225
0.429686 -3.059578 -5.603225
0.418136 -3.071719 -5.625460
0.406494 -3.083957 -5.647872
0.394758 -3.096293 -5.670464
0.390776 -3.172431 -5.809902
0.378638 -3.185487 -5.833811
0.364892 -3.185487 -5.833811
0.351146 -3.185487 -5.833811
0.338794 -3.198650 -5.857917
0.324991 -3.198650 -5.857917
0.309908 -3.185487 -5.833811
0.296162 -3.185487 -5.833811
0.282416 -3.185487 -5.833811
0.268670 -3.185487 -5.833811
0.138135 -3.035581 -5.559278
0.125035 -3.035581 -5.559278
0.111936 -3.035581 -5.559278
0.098837 -3.035581 -5.559278
0.085738 -3.035581 -5.559278
0.072639 -3.035581 -5.559278
0.059540 -3.035581 -5.559278
0.046441 -3.035581 -5.559278
0.033342 -3.035581 -5.559278
0.020242 -3.035581 -5.559278
0.007143 -3.035581 -5.559278
-0.005956 -3.035581 -5.559278
-0.019055 -3.035581 -5.559278
-0.032154 -3.035581 -5.559278
-0.045253 -3.035581 -5.559278
-1.518310 -3.185487 -5.833811
-1.532056 -3.185487 -5.833811
-1.545802 -3.185487 -5.833811
-1.553157 -3.172431 -5.809902
-1.566846 -3.172431 -5.809902
-1.587040 -3.185487 -5.833811
-1.600786 -3.185487 -5.833811
-1.607915 -3.172431 -5.809902
-1.614986 -3.159482 -5.786188
-1.628620 -3.159482 -5.786188
-1.642254 -3.159482 -5.786188
-2.283739 -3.198650 -5.857917
-2.260183 -3.146639 -5.762667
-2.255424 -3.121263 -5.716194
-2.268893 -3.121263 -5.716194
-2.282362 -3.121263 -5.716194
-2.277464 -3.096293 -5.670464
-2.290826 -3.096293 -5.670464
-2.304187 -3.096293 -5.670464
-2.317548 -3.096293 -5.670464
-2.321622 -3.083957 -5.647872
-2.334930 -3.083957 -5.647872
-2.348238 -3.083957 -5.647872
-2.361546 -3.083957 -5.647872
-2.374854 -3.083957 -5.647872
-2.388162 -3.083957 -5.647872
-2.401470 -3.083957 -5.647872
-2.405195 -3.071719 -5.625460
-2.428086 -3.083957 -5.647872
-2.441393 -3.083957 -5.647872
-2.782943 -3.185487 -5.833811
-2.796689 -3.185487 -5.833811
-2.810435 -3.185487 -5.833811
-2.824181 -3.185487 -5.833811
-2.837927 -3.185487 -5.833811
-2.851672 -3.185487 -5.833811
-2.865418 -3.185487 -5.833811
-2.867365 -3.172431 -5.809902
-2.881054 -3.172431 -5.809902
-2.894744 -3.172431 -5.809902
-2.908434 -3.172431 -5.809902
-2.922123 -3.172431 -5.809902
-2.935813 -3.172431 -5.809902
-2.949503 -3.172431 -5.809902
-2.963192 -3.172431 -5.809902
-2.989133 -3.185487 -5.833811
-3.134408 -3.279971 -6.006847
-3.148562 -3.279971 -6.006847
-3.162716 -3.279971 -6.006847
-3.176869 -3.279971 -6.006847
-3.275672 -3.293929 -6.032408
-3.275945 -3.279971 -6.006847
-3.290099 -3.279971 -6.006847
-3.318313 -3.293929 -6.032408
-3.332527 -3.293929 -6.032408
-3.346741 -3.293929 -6.032408
-3.346714 -3.279971 -6.006847
-3.375169 -3.293929 -6.032408
-3.389383 -3.293929 -6.032408
-3.418143 -3.308005 -6.058188
-3.432417 -3.308005 -6.058188
-3.461484 -3.322203 -6.084189
-42.664490 -38.703663 -70.880798
-42.831505 -38.703663 -70.880798
-42.998516 -38.703663 -70.880798
-43.165531 -38.703663 -70.880798
-43.332546 -38.703663 -70.880798
-43.499561 -38.703663 -70.880798
-43.666573 -38.703663 -70.880798
-43.833588 -38.703663 -70.880798
-44.000603 -38.703663 -70.880798
-44.167614 -38.703663 -70.880798
-44.334629 -38.703663 -70.880798
-44.501644 -38.703663 -70.880798
-47.019638 -40.740696 -74.611366
-44.835670 -38.703663 -70.880798
-45.002686 -38.703663 -70.880798
-45.169701 -38.703663 -70.880798
-45.336712 -38.703663 -70.880798
-45.503727 -38.703663 -70.880798
-45.670742 -38.703663 -70.880798
-45.837753 -38.703663 -70.880798
-46.004768 -38.703663 -70.880798
-46.171783 -38.703663 -70.880798
-48.777679 -40.740696 -74.611366
-48.953484 -40.740696 -74.611366
-49.129288 -40.740696 -74.611366
-49.305092 -40.740696 -74.611366
-49.480896 -40.740696 -74.611366
-49.656700 -40.740696 -74.611366
-52.600979 -43.004070 -78.756447
-55.891640 -45.533718 -83.389175
-56.088127 -45.533718 -83.389175
-59.802402 -48.379578 -88.600998
-60.011169 -48.379578 -88.600998
-60.219936 -48.379578 -88.600998
-64.457283 -51.604881 -94.507729
-64.679970 -51.604881 -94.507729
-64.902657 -51.604881 -94.507729
-65.125343 -51.604881 -94.507729
-65.348022 -51.604881 -94.507729
-70.254333 -55.290947 -101.258286
-75.915459 -59.544094 -109.047386
-76.172401 -59.544094 -109.047386
-76.429344 -59.544094 -109.047386
-71.208702 -55.290947 -101.258286
-71.447289 -55.290947 -101.258286
-71.685883 -55.290947 -101.258286
-71.924469 -55.290947 -101.258286
-72.163063 -55.290947 -101.258286
-72.401657 -55.290947 -101.258286
-67.797562 -51.604881 -94.507729
-68.020248 -51.604881 -94.507729
-68.242935 -51.604881 -94.507729
-256.746063 -193.518311 -354.403992
-257.581146 -193.518311 -354.403992
-258.416199 -193.518311 -354.403992
-259.251282 -193.518311 -354.403992
-260.086365 -193.518311 -354.403992
-260.921417 -193.518311 -354.403992
-261.756500 -193.518311 -354.403992
3.418106 -3.266443 -5.956370
3.404071 -3.266443 -5.956370
3.390036 -3.266443 -5.956370
3.376002 -3.266443 -5.956370
3.361967 -3.266443 -5.956370
3.347932 -3.266443 -5.956370
3.333897 -3.266443 -5.956370
3.305972 -3.252776 -5.931448
3.291996 -3.252776 -5.931448
3.278020 -3.252776 -5.931448
3.250443 -3.239223 -5.906733
3.236526 -3.239223 -5.906733
3.222608 -3.239223 -5.906733
3.195376 -3.225782 -5.882224
3.181516 -3.225782 -5.882224
3.154566 -3.212453 -5.857917
3.140764 -3.212453 -5.857917
3.114093 -3.199233 -5.833811
3.100347 -3.199233 -5.833811
3.073951 -3.186121 -5.809902
3.060261 -3.186121 -5.809902
3.046571 -3.186121 -5.809902
3.032881 -3.186121 -5.809902
3.019192 -3.186121 -5.809902
3.005502 -3.186121 -5.809902
