0.176248 -0.180775 -9.913399
0.151828 -0.179520 -9.844556
0.128631 -0.179520 -9.844556
0.104708 -0.178282 -9.776662
0.081671 -0.178282 -9.776662
0.058635 -0.178282 -9.776662
0.035599 -0.178282 -9.776662
0.012562 -0.178282 -9.776662
-0.010474 -0.178282 -9.776662
-0.033511 -0.178282 -9.776662
-0.056547 -0.178282 -9.776662
-0.079583 -0.178282 -9.776662
-0.102620 -0.178282 -9.776662
-0.125656 -0.178282 -9.776662
-0.148693 -0.178282 -9.776662
-0.171729 -0.178282 -9.776662
-0.194765 -0.178282 -9.776662
-0.217802 -0.178282 -9.776662
-0.240838 -0.178282 -9.776662
-0.263875 -0.178282 -9.776662
-0.286911 -0.178282 -9.776662
-0.309947 -0.178282 -9.776662
-0.332984 -0.178282 -9.776662
-0.356020 -0.178282 -9.776662
-0.376460 -0.177060 -9.709699
-0.399339 -0.177060 -9.709699
-0.422218 -0.177060 -9.709699
-0.445096 -0.177060 -9.709699
-0.464791 -0.175856 -9.643646
-0.487514 -0.175856 -9.643646
-0.510237 -0.175856 -9.643646
-0.532960 -0.175856 -9.643646
-0.555683 -0.175856 -9.643646
-0.582368 -0.177060 -9.709699
-0.605247 -0.177060 -9.709699
-0.628125 -0.177060 -9.709699
-0.646575 -0.175856 -9.643646
-0.669298 -0.175856 -9.643646
-0.869462 -0.220947 -12.116376
-0.905753 -0.222852 -12.220827
-0.934549 -0.222852 -12.220827
-0.963344 -0.222852 -12.220827
-0.992140 -0.222852 -12.220827
-1.020935 -0.222852 -12.220827
-1.040759 -0.220947 -12.116376
-1.069308 -0.220947 -12.116376
-1.088554 -0.219075 -12.013695
-1.343640 -0.228768 -12.545274
-1.373200 -0.228768 -12.545274
-1.402760 -0.228768 -12.545274
-1.445108 -0.230811 -12.657286
-1.488220 -0.232890 -12.771316
-1.518312 -0.232890 -12.771316
-1.548405 -0.232890 -12.771316
-1.578498 -0.232890 -12.771316
-1.594228 -0.230811 -12.657286
-1.638683 -0.232890 -12.771316
-1.277476 -0.178282 -9.776662
-1.300513 -0.178282 -9.776662
-1.323549 -0.178282 -9.776662
9.358000 -0.313883 -15.243182
8.846466 -0.297868 -14.465469
8.636134 -0.291911 -14.176160
8.517556 -0.289021 -14.035802
8.161265 -0.278011 -13.501104
7.831125 -0.267808 -13.005651
7.591538 -0.260635 -12.657286
7.494797 -0.258328 -12.545274
7.465237 -0.258328 -12.545274
7.435677 -0.258328 -12.545274
4.524890 -0.160391 -7.789099
4.531435 -0.161277 -7.832132
4.538053 -0.162173 -7.875644
4.519496 -0.162173 -7.875644
4.500938 -0.162173 -7.875644
4.482381 -0.162173 -7.875644
4.463824 -0.162173 -7.875644
4.470101 -0.163079 -7.919642
4.451440 -0.163079 -7.919642
4.432780 -0.163079 -7.919642
4.414119 -0.163079 -7.919642
4.420152 -0.163995 -7.964135
4.401386 -0.163995 -7.964135
4.407381 -0.164921 -8.009130
4.413444 -0.165859 -8.054636
4.444976 -0.167765 -8.147219
4.451362 -0.168735 -8.194312
4.591290 -0.174797 -8.488718
4.771282 -0.182444 -8.860100
4.810536 -0.184754 -8.972253
4.882093 -0.188330 -9.145909
4.945057 -0.193319 -9.388186
4.617164 -0.181311 -8.805068
4.457971 -0.175850 -8.539855
4.411274 -0.174797 -8.488718
4.339305 -0.172728 -8.388260
4.124307 -0.164921 -8.009130
3.784698 -0.152037 -7.383417
3.728462 -0.150470 -7.307299
3.711245 -0.150470 -7.307299
3.694026 -0.150470 -7.307299
3.657953 -0.149698 -7.269825
3.640824 -0.149698 -7.269825
3.623694 -0.149698 -7.269825
3.625155 -0.150470 -7.307299
3.607937 -0.150470 -7.307299
3.590719 -0.150470 -7.307299
3.573501 -0.150470 -7.307299
3.538046 -0.149698 -7.269825
3.520916 -0.149698 -7.269825
3.485910 -0.148934 -7.232735
3.451259 -0.148178 -7.196020
3.434304 -0.148178 -7.196020
3.400089 -0.147430 -7.159677
3.400392 -0.148178 -7.196020
3.383436 -0.148178 -7.196020
3.383657 -0.148934 -7.232735
3.383879 -0.149698 -7.269825
3.384104 -0.150470 -7.307299
3.366886 -0.150470 -7.307299
3.349668 -0.150470 -7.307299
3.349717 -0.151249 -7.345160
3.349766 -0.152037 -7.383417
3.367446 -0.153637 -7.461137
3.349866 -0.153637 -7.461137
3.297574 -0.152037 -7.383417
3.280177 -0.152037 -7.383417
3.245874 -0.151249 -7.345160
3.211925 -0.150470 -7.307299
3.194707 -0.150470 -7.307299
3.177489 -0.150470 -7.307299
3.160271 -0.150470 -7.307299
3.143053 -0.150470 -7.307299
3.142031 -0.151249 -7.345160
3.140998 -0.152037 -7.383417
3.123601 -0.152037 -7.383417
3.138901 -0.153637 -7.461137
3.137835 -0.154450 -7.500614
3.120162 -0.154450 -7.500614
3.135670 -0.156102 -7.580834
3.117808 -0.156102 -7.580834
3.150488 -0.158647 -7.704435
3.132334 -0.158647 -7.704435
3.131198 -0.159514 -7.746535
3.112945 -0.159514 -7.746535
3.077873 -0.158647 -7.704435
3.059719 -0.158647 -7.704435
3.041565 -0.158647 -7.704435
2.974908 -0.156102 -7.580834
2.925754 -0.154450 -7.500614
2.908081 -0.154450 -7.500614
2.875195 -0.153637 -7.461137
2.827847 -0.152037 -7.383417
2.810450 -0.152037 -7.383417
2.793053 -0.152037 -7.383417
2.775655 -0.152037 -7.383417
2.758258 -0.152037 -7.383417
2.740861 -0.152037 -7.383417
2.709352 -0.151249 -7.345160
2.692045 -0.151249 -7.345160
2.674738 -0.151249 -7.345160
2.657431 -0.151249 -7.345160
2.640124 -0.151249 -7.345160
2.636477 -0.152037 -7.383417
2.619080 -0.152037 -7.383417
2.601682 -0.152037 -7.383417
2.584285 -0.152037 -7.383417
2.566888 -0.152037 -7.383417
2.549491 -0.152037 -7.383417
2.558747 -0.153637 -7.461137
2.541167 -0.153637 -7.461137
2.536938 -0.154450 -7.500614
2.519265 -0.154450 -7.500614
2.514898 -0.155272 -7.540511
2.497130 -0.155272 -7.540511
2.479363 -0.155272 -7.540511
2.488064 -0.156941 -7.621591
2.524394 -0.160391 -7.789099
2.548041 -0.163079 -7.919642
2.557961 -0.164921 -8.009130
2.539090 -0.164921 -8.009130
2.506059 -0.163995 -7.964135
2.473398 -0.163079 -7.919642
2.441100 -0.162173 -7.875644
2.409159 -0.161277 -7.832132
2.377568 -0.160391 -7.789099
2.346323 -0.159514 -7.746535
2.315418 -0.158647 -7.704435
2.272563 -0.156941 -7.621591
2.242547 -0.156102 -7.580834
2.212852 -0.155272 -7.540511
2.171978 -0.153637 -7.461137
2.154397 -0.153637 -7.461137
2.114558 -0.152037 -7.383417
2.086295 -0.151249 -7.345160
2.058323 -0.150470 -7.307299
2.041105 -0.150470 -7.307299
2.023887 -0.150470 -7.307299
2.006669 -0.150470 -7.307299
1.989451 -0.150470 -7.307299
1.972233 -0.150470 -7.307299
1.955016 -0.150470 -7.307299
1.937798 -0.150470 -7.307299
1.920580 -0.150470 -7.307299
3.846377 -0.304074 -14.766833
3.851704 -0.307275 -14.922274
3.816543 -0.307275 -14.922274
3.741993 -0.304074 -14.766833
3.707199 -0.304074 -14.766833
3.672404 -0.304074 -14.766833
3.637609 -0.304074 -14.766833
3.640739 -0.307275 -14.922274
3.568020 -0.304074 -14.766833
3.533226 -0.304074 -14.766833
3.498431 -0.304074 -14.766833
3.427929 -0.300939 -14.614597
3.393493 -0.300939 -14.614597
3.359057 -0.300939 -14.614597
3.324621 -0.300939 -14.614597
3.290185 -0.300939 -14.614597
3.255750 -0.300939 -14.614597
3.221314 -0.300939 -14.614597
3.186878 -0.300939 -14.614597
3.152442 -0.300939 -14.614597
3.150486 -0.304074 -14.766833
3.115691 -0.304074 -14.766833
3.049134 -0.300939 -14.614597
3.014699 -0.300939 -14.614597
3.011307 -0.304074 -14.766833
2.976513 -0.304074 -14.766833
2.911391 -0.300939 -14.614597
2.906924 -0.304074 -14.766833
2.933238 -0.310544 -15.081021
2.897703 -0.310544 -15.081021
2.862168 -0.310544 -15.081021
2.826633 -0.310544 -15.081021
2.791099 -0.310544 -15.081021
2.846406 -0.320781 -15.578197
2.809700 -0.320781 -15.578197
2.742852 -0.317295 -15.408870
2.648959 -0.310544 -15.081021
2.432296 -0.289021 -14.035802
2.243718 -0.270288 -13.126074
2.172557 -0.265374 -12.887418
2.103938 -0.260635 -12.657286
2.074114 -0.260635 -12.657286
2.062707 -0.262983 -12.771316
2.089076 -0.270288 -13.126074
2.096980 -0.275388 -13.373735
2.065468 -0.275388 -13.373735
1.996290 -0.270288 -13.126074
1.929628 -0.265374 -12.887418
1.865346 -0.260635 -12.657286
1.835523 -0.260635 -12.657286
1.805699 -0.260635 -12.657286
1.791874 -0.262983 -12.771316
1.794107 -0.267808 -13.005651
1.763462 -0.267808 -13.005651
1.748862 -0.270288 -13.126074
1.767018 -0.278011 -13.501104
1.735205 -0.278011 -13.501104
1.687324 -0.275388 -13.373735
1.640337 -0.272814 -13.248748
1.594220 -0.270288 -13.126074
1.563291 -0.270288 -13.126074
1.518304 -0.267808 -13.005651
1.460855 -0.262983 -12.771316
1.430762 -0.262983 -12.771316
1.388164 -0.260635 -12.657286
1.358340 -0.260635 -12.657286
1.328516 -0.260635 -12.657286
1.287199 -0.258328 -12.545274
1.257639 -0.258328 -12.545274
1.228079 -0.258328 -12.545274
1.198519 -0.258328 -12.545274
1.168959 -0.258328 -12.545274
1.139399 -0.258328 -12.545274
1.140108 -0.265374 -12.887418
1.109741 -0.265374 -12.887418
1.060101 -0.260635 -12.657286
1.021159 -0.258328 -12.545274
0.991599 -0.258328 -12.545274
0.953600 -0.256062 -12.435227
0.916262 -0.253836 -12.327095
0.857394 -0.245303 -11.912740
0.795884 -0.235412 -11.432387
0.756741 -0.231675 -11.250920
0.724481 -0.229851 -11.162331
0.687355 -0.226288 -10.989271
0.651363 -0.222833 -10.821496
0.621123 -0.221145 -10.739515
0.586925 -0.217844 -10.579224
0.549691 -0.213074 -10.347562
0.517751 -0.210008 -10.198676
0.490194 -0.208508 -10.125829
0.463027 -0.207029 -10.054014
0.439337 -0.207029 -10.054014
0.415647 -0.207029 -10.054014
0.391957 -0.207029 -10.054014
0.368267 -0.207029 -10.054014
0.344578 -0.207029 -10.054014
0.323180 -0.208508 -10.125829
0.299321 -0.208508 -10.125829
0.275461 -0.208508 -10.125829
0.249818 -0.207029 -10.054014
0.224535 -0.205571 -9.983212
0.201012 -0.205571 -9.983212
0.177489 -0.205571 -9.983212
0.152890 -0.204134 -9.913399
0.128631 -0.202716 -9.844556
0.105435 -0.202716 -9.844556
0.081671 -0.201318 -9.776662
0.058635 -0.201318 -9.776662
0.035599 -0.201318 -9.776662
0.012562 -0.201318 -9.776662
-0.010474 -0.201318 -9.776662
-0.033511 -0.201318 -9.776662
-0.056547 -0.201318 -9.776662
-0.079583 -0.201318 -9.776662
-0.102620 -0.201318 -9.776662
-0.125656 -0.201318 -9.776662
-0.148693 -0.201318 -9.776662
-0.171729 -0.201318 -9.776662
-0.194765 -0.201318 -9.776662
-0.217802 -0.201318 -9.776662
-0.240838 -0.201318 -9.776662
-0.263875 -0.201318 -9.776662
-0.286911 -0.201318 -9.776662
-0.309947 -0.201318 -9.776662
-0.332984 -0.201318 -9.776662
-0.356020 -0.201318 -9.776662
-0.376460 -0.199939 -9.709699
-0.399339 -0.199939 -9.709699
-0.422218 -0.199939 -9.709699
-0.445096 -0.199939 -9.709699
-0.464791 -0.198579 -9.643646
-0.487514 -0.198579 -9.643646
-0.510237 -0.198579 -9.643646
-0.532960 -0.198579 -9.643646
-0.559489 -0.199939 -9.709699
-0.582368 -0.199939 -9.709699
-0.609421 -0.201318 -9.776662
-0.632457 -0.201318 -9.776662
-0.651004 -0.199939 -9.709699
-0.673882 -0.199939 -9.709699
-0.876958 -0.251647 -12.220827
-0.905753 -0.251647 -12.220827
-0.934549 -0.251647 -12.220827
-0.963344 -0.251647 -12.220827
-0.992140 -0.251647 -12.220827
-1.012209 -0.249497 -12.116376
-1.040759 -0.249497 -12.116376
-1.060246 -0.247382 -12.013695
-1.088554 -0.247382 -12.013695
-1.116861 -0.247382 -12.013695
-1.135545 -0.245303 -11.912740
-1.163615 -0.245303 -11.912740
-1.233134 -0.253836 -12.327095
-1.295989 -0.260635 -12.657286
-1.380284 -0.265374 -12.887418
-1.410651 -0.265374 -12.887418
-1.441017 -0.265374 -12.887418
-1.471383 -0.265374 -12.887418
-1.501749 -0.265374 -12.887418
-1.532115 -0.265374 -12.887418
-1.562481 -0.265374 -12.887418
-1.592848 -0.265374 -12.887418
-1.608590 -0.262983 -12.771316
-1.653580 -0.265374 -12.887418
-1.653876 -0.260635 -12.657286
9.358000 -0.349800 -15.243182
8.937667 -0.335375 -14.614597
8.723368 -0.328600 -14.319353
8.602732 -0.325314 -14.176160
8.319736 -0.315839 -13.763262
8.287307 -0.315839 -13.763262
7.800480 -0.298453 -13.005651
4.416014 -0.173039 -7.540511
4.398246 -0.173039 -7.540511
4.380479 -0.173039 -7.540511
4.506537 -0.178744 -7.789099
4.512981 -0.179731 -7.832132
4.494526 -0.179731 -7.832132
4.476071 -0.179731 -7.832132
4.482381 -0.180730 -7.875644
4.463824 -0.180730 -7.875644
4.445267 -0.180730 -7.875644
4.426710 -0.180730 -7.875644
4.432780 -0.181740 -7.919642
4.414119 -0.181740 -7.919642
4.395458 -0.181740 -7.919642
4.376797 -0.181740 -7.919642
4.382620 -0.182761 -7.964135
4.388509 -0.183793 -8.009130
4.394465 -0.184837 -8.054636
4.400489 -0.185894 -8.100663
4.563960 -0.193639 -8.438190
4.771282 -0.203321 -8.860100
4.841177 -0.207206 -9.029401
4.913795 -0.211243 -9.205298
4.989299 -0.215440 -9.388186
4.870415 -0.211243 -9.205298
4.637911 -0.202058 -8.805068
4.478093 -0.195972 -8.539855
4.378835 -0.192493 -8.388260
4.283040 -0.189136 -8.241953
4.143178 -0.183793 -8.009130
3.802095 -0.169434 -7.383417
3.745680 -0.167688 -7.307299
3.709342 -0.166828 -7.269825
3.673375 -0.165976 -7.232735
3.656332 -0.165976 -7.232735
3.639290 -0.165976 -7.232735
3.622248 -0.165976 -7.232735
3.605206 -0.165976 -7.232735
3.625155 -0.167688 -7.307299
3.607937 -0.167688 -7.307299
3.590719 -0.167688 -7.307299
3.573501 -0.167688 -7.307299
3.538046 -0.166828 -7.269825
3.520916 -0.166828 -7.269825
3.485910 -0.165976 -7.232735
3.468868 -0.165976 -7.232735
3.434304 -0.165134 -7.196020
3.417348 -0.165134 -7.196020
3.400392 -0.165134 -7.196020
3.383436 -0.165134 -7.196020
3.383657 -0.165976 -7.232735
3.383879 -0.166828 -7.269825
3.366750 -0.166828 -7.269825
3.366886 -0.167688 -7.307299
3.349668 -0.167688 -7.307299
3.332450 -0.167688 -7.307299
3.332409 -0.168556 -7.345160
3.315102 -0.168556 -7.345160
3.297795 -0.168556 -7.345160
3.280488 -0.168556 -7.345160
3.246360 -0.167688 -7.307299
3.229142 -0.167688 -7.307299
3.211925 -0.167688 -7.307299
3.194707 -0.167688 -7.307299
3.177489 -0.167688 -7.307299
3.160271 -0.167688 -7.307299
3.143053 -0.167688 -7.307299
3.125835 -0.167688 -7.307299
3.124724 -0.168556 -7.345160
3.107417 -0.168556 -7.345160
3.106204 -0.169434 -7.383417
3.121320 -0.171218 -7.461137
3.103740 -0.171218 -7.461137
3.102488 -0.172124 -7.500614
3.117808 -0.173965 -7.580834
3.116611 -0.174900 -7.621591
3.115402 -0.175845 -7.662789
3.114180 -0.176801 -7.704435
3.096027 -0.176801 -7.704435
3.061236 -0.175845 -7.662789
3.026819 -0.174900 -7.621591
2.992770 -0.173965 -7.580834
2.943427 -0.172124 -7.500614
2.925754 -0.172124 -7.500614
2.892775 -0.171218 -7.461137
2.845244 -0.169434 -7.383417
2.827847 -0.169434 -7.383417
2.810450 -0.169434 -7.383417
2.793053 -0.169434 -7.383417
2.775655 -0.169434 -7.383417
2.758258 -0.169434 -7.383417
2.726660 -0.168556 -7.345160
2.709352 -0.168556 -7.345160
2.692045 -0.168556 -7.345160
2.674738 -0.168556 -7.345160
2.657431 -0.168556 -7.345160
2.640124 -0.168556 -7.345160
2.622817 -0.168556 -7.345160
2.605510 -0.168556 -7.345160
2.588202 -0.168556 -7.345160
2.570895 -0.168556 -7.345160
2.553588 -0.168556 -7.345160
2.536281 -0.168556 -7.345160
2.518974 -0.168556 -7.345160
2.501667 -0.168556 -7.345160
2.497299 -0.169434 -7.383417
2.479902 -0.169434 -7.383417
2.462504 -0.169434 -7.383417
2.470845 -0.171218 -7.461137
2.466245 -0.172124 -7.500614
2.448571 -0.172124 -7.500614
2.443828 -0.173039 -7.540511
2.452147 -0.174900 -7.621591
2.487688 -0.178744 -7.789099
2.482977 -0.179731 -7.832132
2.478214 -0.180730 -7.875644
2.459657 -0.180730 -7.875644
2.427613 -0.179731 -7.832132
2.395922 -0.178744 -7.789099
2.364576 -0.177767 -7.746535
2.333572 -0.176801 -7.704435
2.302902 -0.175845 -7.662789
2.260410 -0.173965 -7.580834
2.218817 -0.172124 -7.500614
2.189558 -0.171218 -7.461137
2.138216 -0.168556 -7.345160
2.120909 -0.168556 -7.345160
2.103602 -0.168556 -7.345160
2.075541 -0.167688 -7.307299
2.058323 -0.167688 -7.307299
2.041105 -0.167688 -7.307299
2.023887 -0.167688 -7.307299
2.006669 -0.167688 -7.307299
1.989451 -0.167688 -7.307299
1.972233 -0.167688 -7.307299
1.955016 -0.167688 -7.307299
1.937798 -0.167688 -7.307299
1.920580 -0.167688 -7.307299
1.903362 -0.167688 -7.307299
3.851704 -0.342436 -14.922274
3.816543 -0.342436 -14.922274
3.741993 -0.338869 -14.766833
3.707199 -0.338869 -14.766833
3.672404 -0.338869 -14.766833
3.637609 -0.338869 -14.766833
3.640739 -0.342436 -14.922274
3.568020 -0.338869 -14.766833
3.533226 -0.338869 -14.766833
3.462365 -0.335375 -14.614597
3.427929 -0.335375 -14.614597
3.393493 -0.335375 -14.614597
3.359057 -0.335375 -14.614597
3.324621 -0.335375 -14.614597
3.290185 -0.335375 -14.614597
3.255750 -0.335375 -14.614597
3.221314 -0.335375 -14.614597
3.186878 -0.335375 -14.614597
3.152442 -0.335375 -14.614597
3.118006 -0.335375 -14.614597
3.083570 -0.335375 -14.614597
3.049134 -0.335375 -14.614597
3.014699 -0.335375 -14.614597
2.980263 -0.335375 -14.614597
2.945827 -0.335375 -14.614597
2.911391 -0.335375 -14.614597
2.876955 -0.335375 -14.614597
2.902362 -0.342436 -14.922274
2.897703 -0.346079 -15.081021
2.862168 -0.346079 -15.081021
2.826633 -0.346079 -15.081021
2.791099 -0.346079 -15.081021
2.785193 -0.349800 -15.243182
2.809700 -0.357488 -15.578197
2.713359 -0.349800 -15.243182
2.621075 -0.342436 -14.922274
2.432296 -0.322093 -14.035802
2.243718 -0.301217 -13.126074
2.152985 -0.293076 -12.771316
2.103938 -0.290459 -12.657286
2.074114 -0.290459 -12.657286
2.100555 -0.298453 -13.005651
2.108600 -0.304032 -13.248748
2.116952 -0.309823 -13.501104
2.105189 -0.312802 -13.630923
2.073071 -0.312802 -13.630923
2.002444 -0.306900 -13.373735
1.916686 -0.298453 -13.005651
1.886042 -0.298453 -13.005651
1.821966 -0.293076 -12.771316
1.808163 -0.295740 -12.887418
1.777797 -0.295740 -12.887418
1.747431 -0.295740 -12.887418
1.717065 -0.295740 -12.887418
1.733989 -0.304032 -13.248748
1.702772 -0.304032 -13.248748
1.671554 -0.304032 -13.248748
1.625148 -0.301217 -13.126074
1.594220 -0.301217 -13.126074
1.563291 -0.301217 -13.126074
1.518304 -0.298453 -13.005651
1.460855 -0.293076 -12.771316
1.430762 -0.293076 -12.771316
1.400670 -0.293076 -12.771316
1.358340 -0.290459 -12.657286
1.328516 -0.290459 -12.657286
1.287199 -0.287888 -12.545274
1.257639 -0.287888 -12.545274
1.228079 -0.287888 -12.545274
1.198519 -0.287888 -12.545274
1.168959 -0.287888 -12.545274
1.139399 -0.287888 -12.545274
1.140108 -0.295740 -12.887418
1.109741 -0.295740 -12.887418
1.069651 -0.293076 -12.771316
1.030277 -0.290459 -12.657286
0.991599 -0.287888 -12.545274
0.962039 -0.287888 -12.545274
0.924300 -0.285363 -12.435227
0.864660 -0.275690 -12.013695
0.802355 -0.264483 -11.525333
0.762795 -0.260251 -11.340928
0.730231 -0.258186 -11.250920
0.692725 -0.254151 -11.075125
0.656373 -0.250241 -10.904738
0.625864 -0.248331 -10.821496
0.595818 -0.246450 -10.739515
0.557835 -0.240973 -10.500859
0.521503 -0.235735 -10.272579
0.493720 -0.234039 -10.198676
0.466334 -0.232367 -10.125829
0.442475 -0.232367 -10.125829
0.418616 -0.232367 -10.125829
0.394757 -0.232367 -10.125829
0.370898 -0.232367 -10.125829
0.347039 -0.232367 -10.125829
0.323180 -0.232367 -10.125829
0.301474 -0.234039 -10.198676
0.277443 -0.234039 -10.198676
0.249818 -0.230719 -10.054014
0.226128 -0.230719 -10.054014
0.202438 -0.230719 -10.054014
0.177489 -0.229094 -9.983212
0.152890 -0.227492 -9.913399
0.129531 -0.227492 -9.913399
0.105435 -0.225912 -9.844556
0.082239 -0.225912 -9.844556
0.058635 -0.224354 -9.776662
0.035599 -0.224354 -9.776662
0.012562 -0.224354 -9.776662
-0.010474 -0.224354 -9.776662
-0.033511 -0.224354 -9.776662
-0.056547 -0.224354 -9.776662
-0.079583 -0.224354 -9.776662
-0.102620 -0.224354 -9.776662
-0.125656 -0.224354 -9.776662
-0.148693 -0.224354 -9.776662
-0.171729 -0.224354 -9.776662
-0.194765 -0.224354 -9.776662
-0.217802 -0.224354 -9.776662
-0.240838 -0.224354 -9.776662
-0.263875 -0.224354 -9.776662
-0.286911 -0.224354 -9.776662
-0.309947 -0.224354 -9.776662
-0.332984 -0.224354 -9.776662
-0.356020 -0.224354 -9.776662
-0.376460 -0.222818 -9.709699
-0.399339 -0.222818 -9.709699
-0.422218 -0.222818 -9.709699
-0.445096 -0.222818 -9.709699
-0.464791 -0.221302 -9.643646
-0.487514 -0.221302 -9.643646
-0.510237 -0.221302 -9.643646
-0.536611 -0.222818 -9.709699
-0.559489 -0.222818 -9.709699
-0.586384 -0.224354 -9.776662
-0.609421 -0.224354 -9.776662
-0.632457 -0.224354 -9.776662
-0.655493 -0.224354 -9.776662
-0.678530 -0.224354 -9.776662
-0.876958 -0.280443 -12.220827
-0.905753 -0.280443 -12.220827
-0.934549 -0.280443 -12.220827
-0.963344 -0.280443 -12.220827
-0.992140 -0.280443 -12.220827
-1.020935 -0.280443 -12.220827
-1.040759 -0.278046 -12.116376
-1.069308 -0.278046 -12.116376
-1.088554 -0.275690 -12.013695
-1.107476 -0.273373 -11.912740
-1.135545 -0.273373 -11.912740
-1.193708 -0.280443 -12.220827
-1.254960 -0.287888 -12.545274
-1.295989 -0.290459 -12.657286
-1.349918 -0.295740 -12.887418
-1.380284 -0.295740 -12.887418
-1.410651 -0.295740 -12.887418
-1.441017 -0.295740 -12.887418
-1.471383 -0.295740 -12.887418
-1.501749 -0.295740 -12.887418
-1.532115 -0.295740 -12.887418
-1.562481 -0.295740 -12.887418
-1.592848 -0.295740 -12.887418
-1.608590 -0.293076 -12.771316
-1.638683 -0.293076 -12.771316
-1.653876 -0.290459 -12.657286
9.258447 -0.381613 -15.081021
8.937667 -0.369811 -14.614597
8.723368 -0.362340 -14.319353
8.602732 -0.358717 -14.176160
8.569328 -0.358717 -14.176160
4.296654 -0.184905 -7.307299
4.301610 -0.185864 -7.345160
4.306616 -0.186832 -7.383417
4.380479 -0.190807 -7.540511
4.457553 -0.194955 -7.704435
4.488184 -0.197097 -7.789099
4.494526 -0.198186 -7.832132
4.476071 -0.198186 -7.832132
4.457617 -0.198186 -7.832132
4.463824 -0.199287 -7.875644
4.445267 -0.199287 -7.875644
4.426710 -0.199287 -7.875644
4.408153 -0.199287 -7.875644
4.414119 -0.200400 -7.919642
4.395458 -0.200400 -7.919642
4.376797 -0.200400 -7.919642
4.358137 -0.200400 -7.919642
4.363855 -0.201526 -7.964135
4.369638 -0.202665 -8.009130
4.375486 -0.203816 -8.054636
4.406582 -0.206159 -8.147219
4.544078 -0.213522 -8.438190
4.810536 -0.227036 -8.972253
4.789395 -0.227036 -8.972253
4.768255 -0.227036 -8.972253
4.629901 -0.221430 -8.750716
4.498215 -0.216094 -8.539855
4.424782 -0.213522 -8.438190
4.277590 -0.207351 -8.194312
4.025589 -0.196020 -7.746535
3.859698 -0.188798 -7.461137
3.802095 -0.186832 -7.383417
3.745680 -0.184905 -7.307299
3.728462 -0.184905 -7.307299
3.673375 -0.183019 -7.232735
3.656332 -0.183019 -7.232735
3.639290 -0.183019 -7.232735
3.622248 -0.183019 -7.232735
3.623694 -0.183957 -7.269825
3.606564 -0.183957 -7.269825
3.607937 -0.184905 -7.307299
3.590719 -0.184905 -7.307299
3.573501 -0.184905 -7.307299
3.538046 -0.183957 -7.269825
3.520916 -0.183957 -7.269825
3.485910 -0.183019 -7.232735
3.468868 -0.183019 -7.232735
3.434304 -0.182090 -7.196020
3.417348 -0.182090 -7.196020
3.400392 -0.182090 -7.196020
3.400699 -0.183019 -7.232735
3.383657 -0.183019 -7.232735
3.383879 -0.183957 -7.269825
3.366750 -0.183957 -7.269825
3.349620 -0.183957 -7.269825
3.349668 -0.184905 -7.307299
3.332450 -0.184905 -7.307299
3.315232 -0.184905 -7.307299
3.298014 -0.184905 -7.307299
3.280796 -0.184905 -7.307299
3.263578 -0.184905 -7.307299
3.246360 -0.184905 -7.307299
3.229142 -0.184905 -7.307299
3.211925 -0.184905 -7.307299
3.194707 -0.184905 -7.307299
3.177489 -0.184905 -7.307299
3.160271 -0.184905 -7.307299
3.143053 -0.184905 -7.307299
3.125835 -0.184905 -7.307299
3.108617 -0.184905 -7.307299
3.107417 -0.185864 -7.345160
3.090109 -0.185864 -7.345160
3.088806 -0.186832 -7.383417
3.071409 -0.186832 -7.383417
3.086159 -0.188798 -7.461137
3.084815 -0.189797 -7.500614
3.099945 -0.191827 -7.580834
3.098653 -0.192858 -7.621591
3.080694 -0.192858 -7.621591
3.046358 -0.191827 -7.580834
3.012386 -0.190807 -7.540511
2.994619 -0.190807 -7.540511
2.961101 -0.189797 -7.500614
2.943427 -0.189797 -7.500614
2.910355 -0.188798 -7.461137
2.862642 -0.186832 -7.383417
2.845244 -0.186832 -7.383417
2.813195 -0.185864 -7.345160
2.795888 -0.185864 -7.345160
2.778581 -0.185864 -7.345160
2.761274 -0.185864 -7.345160
2.743967 -0.185864 -7.345160
2.726660 -0.185864 -7.345160
2.695387 -0.184905 -7.307299
2.678169 -0.184905 -7.307299
2.660951 -0.184905 -7.307299
2.643733 -0.184905 -7.307299
2.626515 -0.184905 -7.307299
2.609297 -0.184905 -7.307299
2.592079 -0.184905 -7.307299
2.574861 -0.184905 -7.307299
2.557643 -0.184905 -7.307299
2.540425 -0.184905 -7.307299
2.523207 -0.184905 -7.307299
2.505989 -0.184905 -7.307299
2.488771 -0.184905 -7.307299
2.471554 -0.184905 -7.307299
2.467052 -0.185864 -7.345160
2.449745 -0.185864 -7.345160
2.432438 -0.185864 -7.345160
2.427710 -0.186832 -7.383417
2.410312 -0.186832 -7.383417
2.418104 -0.188798 -7.461137
2.400523 -0.188798 -7.461137
2.408293 -0.190807 -7.540511
2.403309 -0.191827 -7.580834
2.437588 -0.196020 -7.746535
2.419335 -0.196020 -7.746535
2.401082 -0.196020 -7.746535
2.382829 -0.196020 -7.746535
2.351725 -0.194955 -7.704435
2.320958 -0.193901 -7.662789
2.278272 -0.191827 -7.580834
2.248386 -0.190807 -7.540511
2.207139 -0.188798 -7.461137
2.155524 -0.185864 -7.345160
2.127195 -0.184905 -7.307299
2.109977 -0.184905 -7.307299
2.092759 -0.184905 -7.307299
2.075541 -0.184905 -7.307299
2.058323 -0.184905 -7.307299
2.041105 -0.184905 -7.307299
2.023887 -0.184905 -7.307299
2.006669 -0.184905 -7.307299
1.989451 -0.184905 -7.307299
1.972233 -0.184905 -7.307299
1.955016 -0.184905 -7.307299
1.937798 -0.184905 -7.307299
1.920580 -0.184905 -7.307299
1.903362 -0.184905 -7.307299
1.886144 -0.184905 -7.307299
3.816543 -0.377596 -14.922274
3.741993 -0.373663 -14.766833
3.707199 -0.373663 -14.766833
3.672404 -0.373663 -14.766833
3.675900 -0.377596 -14.922274
3.640739 -0.377596 -14.922274
3.568020 -0.373663 -14.766833
3.533226 -0.373663 -14.766833
3.498431 -0.373663 -14.766833
3.427929 -0.369811 -14.614597
3.393493 -0.369811 -14.614597
3.359057 -0.369811 -14.614597
3.324621 -0.369811 -14.614597
3.290185 -0.369811 -14.614597
3.255750 -0.369811 -14.614597
3.221314 -0.369811 -14.614597
3.186878 -0.369811 -14.614597
3.152442 -0.369811 -14.614597
3.118006 -0.369811 -14.614597
3.083570 -0.369811 -14.614597
3.049134 -0.369811 -14.614597
3.014699 -0.369811 -14.614597
2.980263 -0.369811 -14.614597
2.945827 -0.369811 -14.614597
2.911391 -0.369811 -14.614597
2.876955 -0.369811 -14.614597
2.842519 -0.369811 -14.614597
2.867201 -0.377596 -14.922274
2.832040 -0.377596 -14.922274
2.767745 -0.373663 -14.766833
2.761719 -0.377596 -14.922274
2.755564 -0.381613 -15.081021
2.749276 -0.385717 -15.243182
2.684494 -0.381613 -15.081021
2.593772 -0.373663 -14.766833
2.408450 -0.351683 -13.898196
2.243718 -0.332145 -13.126074
2.133762 -0.320283 -12.657286
2.103938 -0.320283 -12.657286
2.074114 -0.320283 -12.657286
2.120004 -0.332145 -13.126074
2.108600 -0.335249 -13.248748
2.116952 -0.341635 -13.501104
2.105189 -0.344920 -13.630923
2.073071 -0.344920 -13.630923
2.021515 -0.341635 -13.501104
1.952512 -0.335249 -13.248748
1.886042 -0.329098 -13.005651
1.838529 -0.326106 -12.887418
1.808163 -0.326106 -12.887418
1.761781 -0.323168 -12.771316
1.701039 -0.317448 -12.545274
1.671479 -0.317448 -12.545274
1.641919 -0.317448 -12.545274
1.687005 -0.332145 -13.126074
1.640883 -0.329098 -13.005651
1.610239 -0.329098 -13.005651
1.579594 -0.329098 -13.005651
1.548949 -0.329098 -13.005651
1.490948 -0.323168 -12.771316
1.447812 -0.320283 -12.657286
1.417988 -0.320283 -12.657286
1.400670 -0.323168 -12.771316
1.358340 -0.320283 -12.657286
1.328516 -0.320283 -12.657286
1.287199 -0.317448 -12.545274
1.257639 -0.317448 -12.545274
1.228079 -0.317448 -12.545274
1.198519 -0.317448 -12.545274
1.168959 -0.317448 -12.545274
1.139399 -0.317448 -12.545274
1.150567 -0.329098 -13.005651
1.119923 -0.329098 -13.005651
1.079375 -0.326106 -12.887418
1.030277 -0.320283 -12.657286
1.000453 -0.320283 -12.657286
0.962039 -0.317448 -12.545274
0.924300 -0.314664 -12.435227
0.872050 -0.306595 -12.116376
0.802355 -0.291640 -11.525333
0.762795 -0.286973 -11.340928
0.736072 -0.286973 -11.340928
0.698179 -0.282454 -11.162331
0.661461 -0.278075 -10.989271
0.630679 -0.275936 -10.904738
0.600366 -0.273829 -10.821496
0.566223 -0.269712 -10.658767
0.533092 -0.265716 -10.500859
0.497298 -0.259940 -10.272579
0.473093 -0.259940 -10.272579
0.448888 -0.259940 -10.272579
0.421628 -0.258070 -10.198676
0.397597 -0.258070 -10.198676
0.373566 -0.258070 -10.198676
0.347039 -0.256226 -10.125829
0.325505 -0.258070 -10.198676
0.301474 -0.258070 -10.198676
0.277443 -0.258070 -10.198676
0.251602 -0.256226 -10.125829
0.226128 -0.254409 -10.054014
0.202438 -0.254409 -10.054014
0.177489 -0.252617 -9.983212
0.153966 -0.252617 -9.983212
0.129531 -0.250851 -9.913399
0.106172 -0.250851 -9.913399
0.082239 -0.249109 -9.844556
0.058635 -0.247391 -9.776662
0.035599 -0.247391 -9.776662
0.012562 -0.247391 -9.776662
-0.010474 -0.247391 -9.776662
-0.033511 -0.247391 -9.776662
-0.056547 -0.247391 -9.776662
-0.079583 -0.247391 -9.776662
-0.102620 -0.247391 -9.776662
-0.125656 -0.247391 -9.776662
-0.148693 -0.247391 -9.776662
-0.171729 -0.247391 -9.776662
-0.194765 -0.247391 -9.776662
-0.217802 -0.247391 -9.776662
-0.240838 -0.247391 -9.776662
-0.263875 -0.247391 -9.776662
-0.286911 -0.247391 -9.776662
-0.309947 -0.247391 -9.776662
-0.332984 -0.247391 -9.776662
-0.356020 -0.247391 -9.776662
-0.379057 -0.247391 -9.776662
-0.399339 -0.245696 -9.709699
-0.422218 -0.245696 -9.709699
-0.445096 -0.245696 -9.709699
-0.467975 -0.245696 -9.709699
-0.490853 -0.245696 -9.709699
-0.513732 -0.245696 -9.709699
-0.536611 -0.245696 -9.709699
-0.563348 -0.247391 -9.776662
-0.586384 -0.247391 -9.776662
-0.609421 -0.247391 -9.776662
-0.632457 -0.247391 -9.776662
-0.655493 -0.247391 -9.776662
-0.678530 -0.247391 -9.776662
-0.876958 -0.309238 -12.220827
-0.905753 -0.309238 -12.220827
-0.934549 -0.309238 -12.220827
-0.963344 -0.309238 -12.220827
-0.992140 -0.309238 -12.220827
-1.020935 -0.309238 -12.220827
-1.040759 -0.306595 -12.116376
-1.069308 -0.306595 -12.116376
-1.097858 -0.306595 -12.116376
-1.126407 -0.306595 -12.116376
-1.164913 -0.309238 -12.220827
-1.225400 -0.317448 -12.545274
-1.266165 -0.320283 -12.657286
-1.307664 -0.323168 -12.771316
-1.349918 -0.326106 -12.887418
-1.392948 -0.329098 -13.005651
-1.423592 -0.329098 -13.005651
-1.454237 -0.329098 -13.005651
-1.484882 -0.329098 -13.005651
-1.515527 -0.329098 -13.005651
-1.532115 -0.326106 -12.887418
-1.562481 -0.326106 -12.887418
-1.592848 -0.326106 -12.887418
-1.623214 -0.326106 -12.887418
-1.624052 -0.320283 -12.657286
-1.653876 -0.320283 -12.657286
-1.683700 -0.320283 -12.657286
9.065562 -0.408458 -14.766833
8.846466 -0.400122 -14.465469
8.723368 -0.396080 -14.319353
8.689628 -0.396080 -14.319353
4.358808 -0.204229 -7.383417
4.296654 -0.202123 -7.307299
4.301610 -0.203171 -7.345160
4.306616 -0.204229 -7.383417
4.380479 -0.208574 -7.540511
4.457553 -0.213108 -7.704435
4.488184 -0.215450 -7.789099
4.494526 -0.216641 -7.832132
4.476071 -0.216641 -7.832132
4.457617 -0.216641 -7.832132
4.439162 -0.216641 -7.832132
4.445267 -0.217844 -7.875644
4.426710 -0.217844 -7.875644
4.432780 -0.219061 -7.919642
4.414119 -0.219061 -7.919642
4.395458 -0.219061 -7.919642
4.376797 -0.219061 -7.919642
4.358137 -0.219061 -7.919642
4.363855 -0.220292 -7.964135
4.369638 -0.221536 -8.009130
4.375486 -0.222795 -8.054636
4.381402 -0.224068 -8.100663
4.387385 -0.225356 -8.147219
4.444823 -0.229310 -8.290152
4.504313 -0.233404 -8.438190
4.511283 -0.234802 -8.488718
4.464547 -0.233404 -8.438190
4.366688 -0.229310 -8.290152
4.296898 -0.226659 -8.194312
4.043842 -0.214273 -7.746535
3.897793 -0.207471 -7.500614
3.859698 -0.206379 -7.461137
3.802095 -0.204229 -7.383417
3.784698 -0.204229 -7.383417
3.728462 -0.202123 -7.307299
3.711245 -0.202123 -7.307299
3.694026 -0.202123 -7.307299
3.657953 -0.201087 -7.269825
3.640824 -0.201087 -7.269825
3.623694 -0.201087 -7.269825
3.606564 -0.201087 -7.269825
3.589435 -0.201087 -7.269825
3.572305 -0.201087 -7.269825
3.555175 -0.201087 -7.269825
3.538046 -0.201087 -7.269825
3.520916 -0.201087 -7.269825
3.485910 -0.200061 -7.232735
3.468868 -0.200061 -7.232735
3.434304 -0.199045 -7.196020
3.417348 -0.199045 -7.196020
3.400392 -0.199045 -7.196020
3.400699 -0.200061 -7.232735
3.383657 -0.200061 -7.232735
3.383879 -0.201087 -7.269825
3.366750 -0.201087 -7.269825
3.349620 -0.201087 -7.269825
3.332490 -0.201087 -7.269825
3.332450 -0.202123 -7.307299
3.315232 -0.202123 -7.307299
3.298014 -0.202123 -7.307299
3.280796 -0.202123 -7.307299
3.263578 -0.202123 -7.307299
3.246360 -0.202123 -7.307299
3.229142 -0.202123 -7.307299
3.211925 -0.202123 -7.307299
3.178324 -0.201087 -7.269825
3.161194 -0.201087 -7.269825
3.144064 -0.201087 -7.269825
3.143053 -0.202123 -7.307299
3.125835 -0.202123 -7.307299
3.108617 -0.202123 -7.307299
3.091399 -0.202123 -7.307299
3.090109 -0.203171 -7.345160
3.072802 -0.203171 -7.345160
3.071409 -0.204229 -7.383417
3.054012 -0.204229 -7.383417
3.068579 -0.206379 -7.461137
3.067142 -0.207471 -7.500614
3.065689 -0.208574 -7.540511
3.047921 -0.208574 -7.540511
3.030154 -0.208574 -7.540511
2.996448 -0.207471 -7.500614
2.963097 -0.206379 -7.461137
2.945516 -0.206379 -7.461137
2.927936 -0.206379 -7.461137
2.880039 -0.204229 -7.383417
2.862642 -0.204229 -7.383417
2.830502 -0.203171 -7.345160
2.798694 -0.202123 -7.307299
2.781476 -0.202123 -7.307299
2.764258 -0.202123 -7.307299
2.747040 -0.202123 -7.307299
2.729822 -0.202123 -7.307299
2.712605 -0.202123 -7.307299
2.695387 -0.202123 -7.307299
2.678169 -0.202123 -7.307299
2.660951 -0.202123 -7.307299
2.643733 -0.202123 -7.307299
2.626515 -0.202123 -7.307299
2.609297 -0.202123 -7.307299
2.592079 -0.202123 -7.307299
2.574861 -0.202123 -7.307299
2.557643 -0.202123 -7.307299
2.540425 -0.202123 -7.307299
2.523207 -0.202123 -7.307299
2.505989 -0.202123 -7.307299
2.488771 -0.202123 -7.307299
2.471554 -0.202123 -7.307299
2.454335 -0.202123 -7.307299
2.437118 -0.202123 -7.307299
2.419900 -0.202123 -7.307299
2.415131 -0.203171 -7.345160
2.397824 -0.203171 -7.345160
2.380517 -0.203171 -7.345160
2.375518 -0.204229 -7.383417
2.382943 -0.206379 -7.461137
2.390526 -0.208574 -7.540511
2.385447 -0.209690 -7.580834
2.419335 -0.214273 -7.746535
2.401082 -0.214273 -7.746535
2.369879 -0.213108 -7.704435
2.339013 -0.211956 -7.662789
2.296135 -0.209690 -7.580834
2.266154 -0.208574 -7.540511
2.224719 -0.206379 -7.461137
2.184148 -0.204229 -7.383417
2.144413 -0.202123 -7.307299
2.127195 -0.202123 -7.307299
2.109977 -0.202123 -7.307299
2.092759 -0.202123 -7.307299
2.064897 -0.201087 -7.269825
2.047768 -0.201087 -7.269825
2.030638 -0.201087 -7.269825
2.013508 -0.201087 -7.269825
1.996379 -0.201087 -7.269825
1.979249 -0.201087 -7.269825
1.962119 -0.201087 -7.269825
1.944990 -0.201087 -7.269825
1.927860 -0.201087 -7.269825
1.910730 -0.201087 -7.269825
1.893601 -0.201087 -7.269825
1.876471 -0.201087 -7.269825
3.776788 -0.408458 -14.766833
3.741993 -0.408458 -14.766833
3.707199 -0.408458 -14.766833
3.711061 -0.412757 -14.922274
3.675900 -0.412757 -14.922274
3.640739 -0.412757 -14.922274
3.605578 -0.412757 -14.922274
3.533226 -0.408458 -14.766833
3.498431 -0.408458 -14.766833
3.463637 -0.408458 -14.766833
3.428842 -0.408458 -14.766833
3.394047 -0.408458 -14.766833
3.359253 -0.408458 -14.766833
3.324458 -0.408458 -14.766833
3.289664 -0.408458 -14.766833
3.254869 -0.408458 -14.766833
3.220075 -0.408458 -14.766833
3.152442 -0.404247 -14.614597
3.118006 -0.404247 -14.614597
3.083570 -0.404247 -14.614597
3.049134 -0.404247 -14.614597
3.014699 -0.404247 -14.614597
2.980263 -0.404247 -14.614597
2.945827 -0.404247 -14.614597
2.911391 -0.404247 -14.614597
2.876955 -0.404247 -14.614597
2.842519 -0.404247 -14.614597
2.837334 -0.408458 -14.766833
2.802540 -0.408458 -14.766833
2.767745 -0.408458 -14.766833
2.732951 -0.408458 -14.766833
2.755564 -0.417148 -15.081021
2.749276 -0.421634 -15.243182
2.684494 -0.417148 -15.081021
2.593772 -0.408458 -14.766833
2.408450 -0.384431 -13.898196
2.264688 -0.366467 -13.248748
2.192489 -0.359743 -13.005651
2.161844 -0.359743 -13.005651
2.111825 -0.356472 -12.887418
2.120004 -0.363074 -13.126074
2.108600 -0.366467 -13.248748
2.116952 -0.373447 -13.501104
2.085140 -0.373447 -13.501104
2.053327 -0.373447 -13.501104
2.021515 -0.373447 -13.501104
1.952512 -0.366467 -13.248748
1.903505 -0.363074 -13.126074
1.855397 -0.359743 -13.005651
1.808163 -0.356472 -12.887418
1.761781 -0.353261 -12.771316
1.701039 -0.347008 -12.545274
1.628251 -0.338034 -12.220827
1.599456 -0.338034 -12.220827
1.598216 -0.343964 -12.435227
1.582799 -0.347008 -12.545274
1.567107 -0.350107 -12.657286
1.537283 -0.350107 -12.657286
1.507459 -0.350107 -12.657286
1.477636 -0.350107 -12.657286
1.434999 -0.347008 -12.545274
1.405439 -0.347008 -12.545274
1.388164 -0.350107 -12.657286
1.358340 -0.350107 -12.657286
1.328516 -0.350107 -12.657286
1.287199 -0.347008 -12.545274
1.257639 -0.347008 -12.545274
1.228079 -0.347008 -12.545274
1.198519 -0.347008 -12.545274
1.168959 -0.347008 -12.545274
1.149572 -0.350107 -12.657286
1.150567 -0.359743 -13.005651
1.119923 -0.359743 -13.005651
1.079375 -0.356472 -12.887418
1.039559 -0.353261 -12.771316
1.000453 -0.350107 -12.657286
0.962039 -0.347008 -12.545274
0.932479 -0.347008 -12.545274
0.879568 -0.338034 -12.220827
0.808931 -0.321409 -11.619803
0.768946 -0.316225 -11.432387
0.736072 -0.313696 -11.340928
0.703720 -0.311206 -11.250920
0.666629 -0.306343 -11.075125
0.635568 -0.303969 -10.989271
0.609674 -0.303969 -10.989271
0.574868 -0.299328 -10.821496
0.541108 -0.294827 -10.658767
0.508349 -0.290459 -10.500859
0.483606 -0.290459 -10.500859
0.458863 -0.290459 -10.500859
0.430928 -0.288323 -10.423647
0.403401 -0.286219 -10.347562
0.379020 -0.286219 -10.347562
0.352068 -0.284144 -10.272579
0.327863 -0.284144 -10.272579
0.305875 -0.286219 -10.347562
0.279454 -0.284144 -10.272579
0.251602 -0.280085 -10.125829
0.226128 -0.278099 -10.054014
0.202438 -0.278099 -10.054014
0.178748 -0.278099 -10.054014
0.153966 -0.276140 -9.983212
0.130443 -0.276140 -9.983212
0.106172 -0.274209 -9.913399
0.082239 -0.272305 -9.844556
0.058635 -0.270427 -9.776662
0.035599 -0.270427 -9.776662
0.012562 -0.270427 -9.776662
-0.010474 -0.270427 -9.776662
-0.033511 -0.270427 -9.776662
-0.056547 -0.270427 -9.776662
-0.079583 -0.270427 -9.776662
-0.102620 -0.270427 -9.776662
-0.125656 -0.270427 -9.776662
-0.148693 -0.270427 -9.776662
-0.171729 -0.270427 -9.776662
-0.194765 -0.270427 -9.776662
-0.217802 -0.270427 -9.776662
-0.240838 -0.270427 -9.776662
-0.263875 -0.270427 -9.776662
-0.286911 -0.270427 -9.776662
-0.309947 -0.270427 -9.776662
-0.332984 -0.270427 -9.776662
-0.356020 -0.270427 -9.776662
-0.379057 -0.270427 -9.776662
-0.402093 -0.270427 -9.776662
-0.422218 -0.268575 -9.709699
-0.445096 -0.268575 -9.709699
-0.467975 -0.268575 -9.709699
-0.490853 -0.268575 -9.709699
-0.513732 -0.268575 -9.709699
-0.536611 -0.268575 -9.709699
-0.563348 -0.270427 -9.776662
-0.586384 -0.270427 -9.776662
-0.609421 -0.270427 -9.776662
-0.632457 -0.270427 -9.776662
-0.655493 -0.270427 -9.776662
-0.678530 -0.270427 -9.776662
-0.876958 -0.338034 -12.220827
-0.905753 -0.338034 -12.220827
-0.934549 -0.338034 -12.220827
-0.963344 -0.338034 -12.220827
-0.992140 -0.338034 -12.220827
-1.020935 -0.338034 -12.220827
-1.049731 -0.338034 -12.220827
-1.078526 -0.338034 -12.220827
-1.107322 -0.338034 -12.220827
-1.145997 -0.340973 -12.327095
-1.195840 -0.347008 -12.545274
-1.247479 -0.353261 -12.771316
-1.289186 -0.356472 -12.887418
-1.319552 -0.356472 -12.887418
-1.362303 -0.359743 -13.005651
-1.392948 -0.359743 -13.005651
-1.423592 -0.359743 -13.005651
-1.454237 -0.359743 -13.005651
-1.484882 -0.359743 -13.005651
-1.515527 -0.359743 -13.005651
-1.546171 -0.359743 -13.005651
-1.562481 -0.356472 -12.887418
-1.592848 -0.356472 -12.887418
-1.623214 -0.356472 -12.887418
-1.638683 -0.353261 -12.771316
-1.668775 -0.353261 -12.771316
9.196150 -0.447918 -14.922274
8.880550 -0.434206 -14.465469
8.757108 -0.429820 -14.319353
8.723368 -0.429820 -14.319353
4.747070 -0.240408 -8.009130
4.475354 -0.227552 -7.580834
4.318917 -0.220478 -7.345160
4.324014 -0.221626 -7.383417
4.398246 -0.226342 -7.540511
4.403904 -0.227552 -7.580834
4.481911 -0.232526 -7.746535
4.512981 -0.235095 -7.832132
4.494526 -0.235095 -7.832132
4.476071 -0.235095 -7.832132
4.457617 -0.235095 -7.832132
4.463824 -0.236401 -7.875644
4.445267 -0.236401 -7.875644
4.451440 -0.237722 -7.919642
4.432780 -0.237722 -7.919642
4.414119 -0.237722 -7.919642
4.395458 -0.237722 -7.919642
4.376797 -0.237722 -7.919642
4.382620 -0.239057 -7.964135
4.388509 -0.240408 -8.009130
4.394465 -0.241774 -8.054636
4.375486 -0.241774 -8.054636
4.356508 -0.241774 -8.054636
4.362315 -0.243156 -8.100663
4.368188 -0.244553 -8.147219
4.374130 -0.245967 -8.194312
4.354822 -0.245967 -8.194312
4.335514 -0.245967 -8.194312
4.291400 -0.244553 -8.147219
4.199793 -0.240408 -8.009130
3.936293 -0.226342 -7.540511
3.877278 -0.223959 -7.461137
3.859698 -0.223959 -7.461137
3.842117 -0.223959 -7.461137
3.824537 -0.223959 -7.461137
3.747781 -0.220478 -7.345160
3.730474 -0.220478 -7.345160
3.694026 -0.219341 -7.307299
3.676809 -0.219341 -7.307299
3.640824 -0.218217 -7.269825
3.623694 -0.218217 -7.269825
3.606564 -0.218217 -7.269825
3.589435 -0.218217 -7.269825
3.572305 -0.218217 -7.269825
3.555175 -0.218217 -7.269825
3.538046 -0.218217 -7.269825
3.520916 -0.218217 -7.269825
3.485910 -0.217103 -7.232735
3.468868 -0.217103 -7.232735
3.451826 -0.217103 -7.232735
3.434783 -0.217103 -7.232735
3.417741 -0.217103 -7.232735
3.400699 -0.217103 -7.232735
3.383657 -0.217103 -7.232735
3.383879 -0.218217 -7.269825
3.366750 -0.218217 -7.269825
3.349620 -0.218217 -7.269825
3.332490 -0.218217 -7.269825
3.315361 -0.218217 -7.269825
3.315232 -0.219341 -7.307299
3.298014 -0.219341 -7.307299
3.280796 -0.219341 -7.307299
3.263578 -0.219341 -7.307299
3.229712 -0.218217 -7.269825
3.212583 -0.218217 -7.269825
3.195453 -0.218217 -7.269825
3.178324 -0.218217 -7.269825
3.161194 -0.218217 -7.269825
3.144064 -0.218217 -7.269825
3.126935 -0.218217 -7.269825
3.125835 -0.219341 -7.307299
3.108617 -0.219341 -7.307299
3.091399 -0.219341 -7.307299
3.074181 -0.219341 -7.307299
3.072802 -0.220478 -7.345160
3.055495 -0.220478 -7.345160
3.054012 -0.221626 -7.383417
3.036615 -0.221626 -7.383417
3.050999 -0.223959 -7.461137
3.049468 -0.225144 -7.500614
3.031795 -0.225144 -7.500614
2.998257 -0.223959 -7.461137
2.949628 -0.221626 -7.383417
2.932231 -0.221626 -7.383417
2.914834 -0.221626 -7.383417
2.897436 -0.221626 -7.383417
2.865117 -0.220478 -7.345160
2.847810 -0.220478 -7.345160
2.815912 -0.219341 -7.307299
2.798694 -0.219341 -7.307299
2.781476 -0.219341 -7.307299
2.764258 -0.219341 -7.307299
2.747040 -0.219341 -7.307299
2.729822 -0.219341 -7.307299
2.712605 -0.219341 -7.307299
2.695387 -0.219341 -7.307299
2.678169 -0.219341 -7.307299
2.660951 -0.219341 -7.307299
2.643733 -0.219341 -7.307299
2.626515 -0.219341 -7.307299
2.609297 -0.219341 -7.307299
2.592079 -0.219341 -7.307299
2.574861 -0.219341 -7.307299
2.557643 -0.219341 -7.307299
2.540425 -0.219341 -7.307299
2.523207 -0.219341 -7.307299
2.505989 -0.219341 -7.307299
2.488771 -0.219341 -7.307299
2.471554 -0.219341 -7.307299
2.454335 -0.219341 -7.307299
2.437118 -0.219341 -7.307299
2.419900 -0.219341 -7.307299
2.402682 -0.219341 -7.307299
2.385464 -0.219341 -7.307299
2.368246 -0.219341 -7.307299
2.363209 -0.220478 -7.345160
2.358120 -0.221626 -7.383417
2.365362 -0.223959 -7.461137
2.372758 -0.226342 -7.540511
2.367584 -0.227552 -7.580834
2.388033 -0.231262 -7.704435
2.344397 -0.228775 -7.621591
2.313997 -0.227552 -7.580834
2.283921 -0.226342 -7.540511
2.254164 -0.225144 -7.500614
2.201545 -0.221626 -7.383417
2.161631 -0.219341 -7.307299
2.144413 -0.219341 -7.307299
2.127195 -0.219341 -7.307299
2.109977 -0.219341 -7.307299
2.082027 -0.218217 -7.269825
2.064897 -0.218217 -7.269825
2.047768 -0.218217 -7.269825
2.030638 -0.218217 -7.269825
2.013508 -0.218217 -7.269825
1.996379 -0.218217 -7.269825
1.979249 -0.218217 -7.269825
1.962119 -0.218217 -7.269825
1.944990 -0.218217 -7.269825
1.927860 -0.218217 -7.269825
1.900982 -0.217103 -7.232735
1.883940 -0.217103 -7.232735
1.876471 -0.218217 -7.269825
1.859342 -0.218217 -7.269825
3.781383 -0.447918 -14.922274
3.746222 -0.447918 -14.922274
3.711061 -0.447918 -14.922274
3.715005 -0.452683 -15.081021
3.679471 -0.452683 -15.081021
3.605578 -0.447918 -14.922274
3.570418 -0.447918 -14.922274
3.498431 -0.443252 -14.766833
3.463637 -0.443252 -14.766833
3.428842 -0.443252 -14.766833
3.394047 -0.443252 -14.766833
3.359253 -0.443252 -14.766833
3.324458 -0.443252 -14.766833
3.289664 -0.443252 -14.766833
3.254869 -0.443252 -14.766833
3.220075 -0.443252 -14.766833
3.185280 -0.443252 -14.766833
3.118006 -0.438683 -14.614597
3.083570 -0.438683 -14.614597
3.049134 -0.438683 -14.614597
3.014699 -0.438683 -14.614597
2.980263 -0.438683 -14.614597
2.945827 -0.438683 -14.614597
2.911391 -0.438683 -14.614597
2.876955 -0.438683 -14.614597
2.842519 -0.438683 -14.614597
2.837334 -0.443252 -14.766833
2.802540 -0.443252 -14.766833
2.767745 -0.443252 -14.766833
2.791099 -0.452683 -15.081021
2.755564 -0.452683 -15.081021
2.749276 -0.457551 -15.243182
2.713359 -0.457551 -15.243182
2.621075 -0.447918 -14.922274
2.532597 -0.438683 -14.614597
2.352637 -0.413128 -13.763262
2.212790 -0.394002 -13.126074
2.181861 -0.394002 -13.126074
2.131200 -0.390387 -13.005651
2.139817 -0.397684 -13.248748
2.128492 -0.401436 -13.373735
2.116952 -0.405259 -13.501104
2.085140 -0.405259 -13.501104
2.053327 -0.405259 -13.501104
2.021515 -0.405259 -13.501104
1.952512 -0.397684 -13.248748
1.921295 -0.397684 -13.248748
1.872576 -0.394002 -13.126074
1.841648 -0.394002 -13.126074
1.794107 -0.390387 -13.005651
1.701039 -0.376568 -12.545274
1.656817 -0.373265 -12.435227
1.599456 -0.366829 -12.220827
1.598216 -0.373265 -12.435227
1.582799 -0.376568 -12.545274
1.553239 -0.376568 -12.545274
1.537283 -0.379931 -12.657286
1.507459 -0.379931 -12.657286
1.477636 -0.379931 -12.657286
1.434999 -0.376568 -12.545274
1.405439 -0.376568 -12.545274
1.388164 -0.379931 -12.657286
1.358340 -0.379931 -12.657286
1.328516 -0.379931 -12.657286
1.287199 -0.376568 -12.545274
1.257639 -0.376568 -12.545274
1.228079 -0.376568 -12.545274
1.209220 -0.379931 -12.657286
1.179396 -0.379931 -12.657286
1.159929 -0.383353 -12.771316
1.161221 -0.394002 -13.126074
1.130292 -0.394002 -13.126074
1.079375 -0.386838 -12.887418
1.039559 -0.383353 -12.771316
1.000453 -0.379931 -12.657286
0.962039 -0.376568 -12.545274
0.932479 -0.376568 -12.545274
0.879568 -0.366829 -12.220827
0.815617 -0.351671 -11.715835
0.768946 -0.343163 -11.432387
0.742009 -0.343163 -11.432387
0.709350 -0.340418 -11.340928
0.671878 -0.335057 -11.162331
0.640533 -0.332439 -11.075125
0.609674 -0.329862 -10.989271
0.583780 -0.329862 -10.989271
0.549369 -0.324826 -10.821496
0.519902 -0.322365 -10.739515
0.494597 -0.322365 -10.739515
0.465763 -0.319941 -10.658767
0.437360 -0.317554 -10.579224
0.409378 -0.315202 -10.500859
0.384635 -0.315202 -10.500859
0.357246 -0.312884 -10.423647
0.332685 -0.312884 -10.423647
0.308124 -0.312884 -10.423647
0.281493 -0.310600 -10.347562
0.251602 -0.303944 -10.125829
0.227743 -0.303944 -10.125829
0.203884 -0.303944 -10.125829
0.178748 -0.301789 -10.054014
0.153966 -0.299664 -9.983212
0.130443 -0.299664 -9.983212
0.106172 -0.297568 -9.913399
0.082814 -0.297568 -9.913399
0.059042 -0.295502 -9.844556
0.035599 -0.293464 -9.776662
0.012562 -0.293464 -9.776662
-0.010474 -0.293464 -9.776662
-0.033511 -0.293464 -9.776662
-0.056547 -0.293464 -9.776662
-0.079583 -0.293464 -9.776662
-0.102620 -0.293464 -9.776662
-0.125656 -0.293464 -9.776662
-0.148693 -0.293464 -9.776662
-0.171729 -0.293464 -9.776662
-0.194765 -0.293464 -9.776662
-0.217802 -0.293464 -9.776662
-0.240838 -0.293464 -9.776662
-0.263875 -0.293464 -9.776662
-0.286911 -0.293464 -9.776662
-0.309947 -0.293464 -9.776662
-0.332984 -0.293464 -9.776662
-0.356020 -0.293464 -9.776662
-0.379057 -0.293464 -9.776662
-0.402093 -0.293464 -9.776662
-0.425129 -0.293464 -9.776662
-0.445096 -0.291454 -9.709699
-0.467975 -0.291454 -9.709699
-0.490853 -0.291454 -9.709699
-0.513732 -0.291454 -9.709699
-0.536611 -0.291454 -9.709699
-0.563348 -0.293464 -9.776662
-0.586384 -0.293464 -9.776662
-0.609421 -0.293464 -9.776662
-0.632457 -0.293464 -9.776662
-0.655493 -0.293464 -9.776662
-0.678530 -0.293464 -9.776662
-0.876958 -0.366829 -12.220827
-0.905753 -0.366829 -12.220827
-0.934549 -0.366829 -12.220827
-0.963344 -0.366829 -12.220827
-0.992140 -0.366829 -12.220827
-1.020935 -0.366829 -12.220827
-1.049731 -0.366829 -12.220827
-1.078526 -0.366829 -12.220827
-1.116951 -0.370019 -12.327095
-1.166280 -0.376568 -12.545274
-1.217386 -0.383353 -12.771316
-1.270369 -0.390387 -13.005651
-1.313060 -0.394002 -13.126074
-1.343988 -0.394002 -13.126074
-1.374917 -0.394002 -13.126074
-1.405845 -0.394002 -13.126074
-1.436774 -0.394002 -13.126074
-1.467702 -0.394002 -13.126074
-1.498631 -0.394002 -13.126074
-1.529559 -0.394002 -13.126074
-1.546171 -0.390387 -13.005651
-1.576816 -0.390387 -13.005651
-1.607461 -0.390387 -13.005651
-1.623214 -0.386838 -12.887418
-1.638683 -0.383353 -12.771316
-1.668775 -0.383353 -12.771316
9.100357 -0.478047 -14.766833
8.702940 -0.458925 -14.176160
